ply
format ascii 1.0
comment created by gply, a Houdini tool.
comment converted from .[b]geo
comment for more information about Houdini, try:
comment www.sidefx.com
element vertex 81
property float x
property float y
property float z
property float uv1
property float uv2
property float uv3
element face 0
property list uchar int vertex_indices
end_header
-484.464081 749 92.4164658 0.473770827 0.0687500536 488.725342 
-484.464081 840.549988 92.4164658 0.473770827 0.125 488.725342 
-484.464081 932.099976 92.4164658 0.473770827 0.175000012 488.725342 
-484.464081 1023.65002 92.4164658 0.473770827 0.231250018 488.725342 
-484.464081 1115.19995 92.4164658 0.473770827 0.281250119 488.725342 
-484.464081 1206.75 92.4164658 0.473770827 0.337500095 488.725311 
-484.464081 1298.30005 92.4164658 0.473770827 0.393750131 488.725342 
-484.464081 1389.84998 92.4164658 0.473770827 0.443750143 488.725342 
-484.464081 1481.40002 92.4164658 0.473770827 0.500000119 488.725342 
-484.464081 1572.94995 92.4164658 0.473770827 0.550000191 488.725342 
-484.464081 1664.5 92.4164658 0.473770827 0.606250167 488.725342 
-430.525177 629.900024 -240.612396 0.58428508 0 498.764313 
-430.525177 721.450012 -240.612396 0.58428508 0.056250006 498.764313 
-430.525177 813 -240.612396 0.58428508 0.106249988 498.764313 
431.362457 629.900024 -239.108109 0.91571486 0 498.764221 
431.362457 721.450012 -239.108109 0.91571486 0.056250006 498.764221 
431.362457 813 -239.108109 0.91571486 0.106249988 498.764221 
-6.02542496 629.900024 493.163208 0.253320903 0 476.473969 
-6.02542496 721.450012 493.163208 0.253320903 0.056250006 476.473969 
-6.02542496 813 493.163208 0.253320903 0.106249988 476.473969 
309.040985 749 384.369476 0.139004499 0.0687500536 479.861755 
309.040985 840.549988 384.369476 0.139004499 0.125 479.861755 
309.040985 932.099976 384.369476 0.139004499 0.175000012 479.861755 
309.040985 1023.65002 384.369476 0.139004499 0.231250018 479.861755 
309.040985 1115.19995 384.369476 0.139004499 0.281250119 479.861755 
309.040985 1206.75 384.369476 0.139004499 0.337500095 479.861755 
309.040985 1298.30005 384.369476 0.139004499 0.393750131 479.861755 
309.040985 1389.84998 384.369476 0.139004499 0.443750143 479.861755 
309.040985 1481.40002 384.369476 0.139004499 0.500000119 479.861755 
309.040985 1572.94995 384.369476 0.139004499 0.550000191 479.861755 
309.040985 1664.5 384.369476 0.139004499 0.606250167 479.861755 
-314.510162 1244 379.907379 0.364268392 0.356250048 483.575165 
-314.510162 1335.32922 379.907379 0.364268392 0.412500083 483.575165 
-314.510162 1426.65833 379.907379 0.364268392 0.468750089 483.575165 
-314.510162 1517.98755 379.907379 0.364268392 0.518750072 483.575165 
-314.510162 1609.31665 379.907379 0.364268392 0.575000107 483.575165 
-314.510162 1700.64587 379.907379 0.364268392 0.625000119 483.575165 
-314.510162 1791.97498 379.907379 0.364268392 0.681250095 483.575165 
-314.510162 1883.3042 379.907379 0.364268392 0.731250167 483.575165 
-314.510162 1974.6333 379.907379 0.364268392 0.787500143 483.575165 
-314.510162 2065.9624 379.907379 0.364268392 0.837500215 483.575165 
-314.510162 2157.29175 379.907379 0.364268392 0.893750072 483.575165 
-314.510162 2248.62085 379.907379 0.364268392 0.943749905 483.575165 
-314.510162 2339.94995 379.907379 0.364268392 1 483.575165 
-170.139496 1244 -462.924164 0.696040571 0.356250048 508.96106 
-170.139496 1335.32922 -462.924164 0.696040571 0.412500083 508.96106 
-170.139496 1426.65833 -462.924164 0.696040571 0.468750089 508.96106 
-170.139496 1517.98755 -462.924164 0.696040571 0.518750072 508.96106 
-170.139496 1609.31665 -462.924164 0.696040571 0.575000107 508.96106 
-170.139496 1700.64587 -462.924164 0.696040571 0.625000119 508.96106 
-170.139496 1791.97498 -462.924164 0.696040571 0.681250095 508.96106 
-170.139496 1883.3042 -462.924164 0.696040571 0.731250167 508.96106 
-170.139496 1974.6333 -462.924164 0.696040571 0.787500143 508.96106 
-170.139496 2065.9624 -462.924164 0.696040571 0.837500215 508.96106 
-170.139496 2157.29175 -462.924164 0.696040571 0.893750072 508.96106 
-170.139496 2248.62085 -462.924164 0.696040571 0.943749905 508.96106 
-170.139496 2339.94995 -462.924164 0.696040571 1 508.96106 
483.940399 1244 95.1207733 0.0262291208 0.356250048 488.725311 
483.940399 1335.32922 95.1207733 0.0262291208 0.412500083 488.725311 
483.940399 1426.65833 95.1207733 0.0262291208 0.468750089 488.725311 
483.940399 1517.98755 95.1207733 0.0262291208 0.518750191 488.725311 
483.940399 1609.31665 95.1207733 0.0262291208 0.575000107 488.725311 
483.940399 1700.64587 95.1207733 0.0262291208 0.625000119 488.725311 
483.940399 1791.97498 95.1207733 0.0262291208 0.681250036 488.725311 
483.940399 1883.3042 95.1207733 0.0262291208 0.731250167 488.725311 
483.940399 1974.6333 95.1207733 0.0262291208 0.787500143 488.725311 
483.940399 2065.9624 95.1207733 0.0262291208 0.837500215 488.725311 
483.940399 2157.29175 95.1207733 0.0262291208 0.893750072 488.725311 
483.940399 2248.62085 95.1207733 0.0262291208 0.943749905 488.725311 
483.940399 2339.94995 95.1207733 0.0262291208 1 488.725311 
168.684341 749 -463.456421 0.803959489 0.0687500536 508.960968 
168.684341 840.549988 -463.456421 0.803959489 0.125 508.960968 
168.684341 932.099976 -463.456421 0.803959489 0.175000012 508.960968 
168.684341 1023.65002 -463.456421 0.803959489 0.231250077 508.960968 
168.684341 1115.19995 -463.456421 0.803959489 0.281250119 508.960968 
168.684341 1206.75 -463.456421 0.803959489 0.337500095 508.960968 
168.684341 1298.30005 -463.456421 0.803959489 0.393750131 508.960968 
168.684341 1389.84998 -463.456421 0.803959489 0.443750143 508.960968 
168.684341 1481.40002 -463.456421 0.803959489 0.500000119 508.960968 
168.684341 1572.94995 -463.456421 0.803959489 0.550000191 508.960968 
168.684341 1664.5 -463.456421 0.803959489 0.606250167 508.960968 
