ply
format ascii 1.0
comment created by gply, a Houdini tool.
comment converted from .[b]geo
comment for more information about Houdini, try:
comment www.sidefx.com
element vertex 684
property float x
property float y
property float z
property float uv1
property float uv2
property float uv3
element face 0
property list uchar int vertex_indices
end_header
-463.539856 1417.19995 -20.1692352 0.511236727 0.53124994 475.027588 
-463.813324 1417.19995 -18.6183548 0.511236727 0.53124994 475.027588 
-464.086761 1417.19995 -17.0674782 0.511236727 0.53124994 475.027588 
-464.360229 1417.19995 -15.5165939 0.511236727 0.53124994 475.027588 
-464.633698 1417.19995 -13.9657211 0.511236727 0.53124994 475.027588 
-464.907166 1417.19995 -12.4148407 0.511236727 0.53124994 475.027588 
-465.180634 1417.19995 -10.8639603 0.507683992 0.531249881 476.255066 
-465.454071 1417.19995 -9.31308746 0.507683992 0.531249881 476.255066 
-465.727539 1417.19995 -7.76220703 0.507683992 0.531249881 476.255066 
-466.001007 1417.19995 -6.21133423 0.507683992 0.531249881 476.255066 
-466.274475 1417.19995 -4.66044617 0.507683992 0.531249881 476.255066 
-466.547913 1417.19995 -3.10956573 0.507683992 0.531249881 476.255066 
-466.821381 1417.19995 -1.55869293 0.507683992 0.531249881 476.255066 
-467.094849 1417.19995 -0.0078125 0.504151225 0.53124994 477.718597 
-467.368317 1417.19995 1.5430603 0.504151225 0.53124994 477.718597 
-467.641785 1417.19995 3.09394073 0.504151225 0.53124994 477.718597 
-467.915222 1417.19995 4.64482117 0.504151225 0.53124994 477.718597 
-468.18869 1417.19995 6.1957016 0.504151225 0.53124994 477.718597 
-468.462158 1417.19995 7.74658203 0.504151225 0.53124994 477.718597 
-468.735626 1417.19995 9.29745483 0.504151225 0.53124994 477.718597 
-469.009094 1417.19995 10.8483353 0.500641704 0.531249881 479.415924 
-469.282532 1417.19995 12.3992157 0.500641704 0.531249881 479.415924 
-469.556 1417.19995 13.9500885 0.500641704 0.531249881 479.415924 
-469.829468 1417.19995 15.5009689 0.500641704 0.531249881 479.415924 
-470.102936 1417.19995 17.0518494 0.500641704 0.531249881 479.415924 
-470.376373 1417.19995 18.6027298 0.500641704 0.531249881 479.415924 
-448.371643 1417.19995 143.397491 0.453599721 0.531249881 475.041229 
-447.584259 1417.19995 144.761322 0.453599721 0.531249881 475.041229 
-446.796844 1417.19995 146.125137 0.453599721 0.531249881 475.041229 
-446.00946 1417.19995 147.488953 0.453599721 0.531249881 475.041229 
-445.222046 1417.19995 148.852783 0.453599721 0.531249881 475.041229 
-444.434631 1417.19995 150.216599 0.453599721 0.531249881 475.041229 
-443.647247 1417.19995 151.580414 0.450097233 0.53124994 472.697601 
-442.859833 1417.19995 152.944229 0.450097233 0.53124994 472.697601 
-442.072449 1417.19995 154.308044 0.450097233 0.53124994 472.697601 
-441.285034 1417.19995 155.671875 0.450097233 0.53124994 472.697601 
-440.49765 1417.19995 157.03569 0.450097233 0.53124994 472.697601 
-439.710236 1417.19995 158.399506 0.450097233 0.53124994 472.697601 
-438.922852 1417.19995 159.763336 0.450097233 0.53124994 472.697601 
-438.135437 1417.19995 161.127151 0.446561575 0.531249881 470.585144 
-437.348022 1417.19995 162.490967 0.446561575 0.531249881 470.585144 
-436.560638 1417.19995 163.854797 0.446561575 0.531249881 470.585144 
-435.773224 1417.19995 165.218613 0.446561575 0.531249881 470.585144 
-434.98584 1417.19995 166.582428 0.446561575 0.531249881 470.585144 
-434.198425 1417.19995 167.946243 0.446561575 0.531249881 470.585144 
-433.411011 1417.19995 169.310059 0.446561575 0.531249881 470.585144 
-432.623627 1417.19995 170.673889 0.442995846 0.53124994 468.70697 
-431.836212 1417.19995 172.037704 0.442995846 0.53124994 468.70697 
-431.048828 1417.19995 173.40152 0.442995846 0.53124994 468.70697 
-430.261414 1417.19995 174.76535 0.442995846 0.53124994 468.70697 
-429.473999 1417.19995 176.129166 0.442995846 0.53124994 468.70697 
-428.686615 1417.19995 177.492981 0.442995846 0.53124994 468.70697 
-427.8992 1417.19995 178.856812 0.442995846 0.53124994 468.70697 
-427.111816 1417.19995 180.220612 0.439403236 0.531249881 467.065887 
-426.324402 1417.19995 181.584442 0.439403236 0.531249881 467.065887 
-425.536987 1417.19995 182.948257 0.439403236 0.531249881 467.065887 
-424.749603 1417.19995 184.312073 0.439403236 0.531249881 467.065887 
-423.962189 1417.19995 185.675903 0.439403236 0.531249881 467.065887 
-423.174805 1417.19995 187.039719 0.439403236 0.531249881 467.065887 
-422.38739 1417.19995 188.403534 0.435787141 0.53124994 465.664368 
-421.600006 1417.19995 189.767365 0.435787141 0.53124994 465.664368 
-420.812592 1417.19995 191.13118 0.435787141 0.53124994 465.664368 
-420.025208 1417.19995 192.494995 0.435787141 0.53124994 465.664368 
-419.237793 1417.19995 193.85881 0.435787141 0.53124994 465.664368 
-418.450378 1417.19995 195.222626 0.435787141 0.53124994 465.664368 
-417.662994 1417.19995 196.586456 0.435787141 0.53124994 465.664368 
-416.87558 1417.19995 197.950272 0.432151109 0.53125 464.504578 
-416.088196 1417.19995 199.314087 0.432151109 0.53125 464.504578 
-415.300781 1417.19995 200.677917 0.432151109 0.53125 464.504578 
-414.513367 1417.19995 202.041733 0.432151109 0.53125 464.504578 
-413.725983 1417.19995 203.405548 0.432151109 0.53125 464.504578 
-412.938568 1417.19995 204.769379 0.432151109 0.53125 464.504578 
-412.151184 1417.19995 206.133194 0.432151109 0.53125 464.504578 
-411.36377 1417.19995 207.497009 0.428498805 0.53125 463.588409 
-410.576355 1417.19995 208.860825 0.428498805 0.53125 463.588409 
-409.788971 1417.19995 210.224655 0.428498805 0.53125 463.588409 
-409.001556 1417.19995 211.58847 0.428498805 0.53125 463.588409 
-408.214172 1417.19995 212.952286 0.428498805 0.53125 463.588409 
-407.426758 1417.19995 214.316101 0.428498805 0.53125 463.588409 
-406.639374 1417.19995 215.679932 0.428498805 0.53125 463.588409 
-405.851959 1417.19995 217.043747 0.424833953 0.53125 462.917267 
-405.064545 1417.19995 218.407562 0.424833953 0.53125 462.917267 
-404.277161 1417.19995 219.771393 0.424833953 0.53125 462.917267 
-403.489746 1417.19995 221.135208 0.424833953 0.53125 462.917267 
-402.702362 1417.19995 222.499023 0.424833953 0.53125 462.917267 
-401.914948 1417.19995 223.862839 0.424833953 0.53125 462.917267 
-401.127563 1417.19995 225.226669 0.424833953 0.53125 462.917267 
-400.340149 1417.19995 226.590485 0.42116043 0.53125 462.492249 
-399.552734 1417.19995 227.9543 0.42116043 0.53125 462.492249 
-398.76535 1417.19995 229.318115 0.42116043 0.53125 462.492249 
-397.977936 1417.19995 230.681946 0.42116043 0.53125 462.492249 
-397.190552 1417.19995 232.045761 0.42116043 0.53125 462.492249 
-396.403137 1417.19995 233.409576 0.42116043 0.53125 462.492249 
-395.615723 1417.19995 234.773392 0.417482108 0.53124994 462.313995 
-394.828339 1417.19995 236.137222 0.417482108 0.53124994 462.313995 
-394.040924 1417.19995 237.501038 0.417482108 0.53124994 462.313995 
-393.25354 1417.19995 238.864853 0.417482108 0.53124994 462.313995 
-392.466125 1417.19995 240.228668 0.417482108 0.53124994 462.313995 
-391.678741 1417.19995 241.592499 0.417482108 0.53124994 462.313995 
-390.891327 1417.19995 242.956314 0.417482108 0.53124994 462.313995 
-390.103912 1417.19995 244.320129 0.413802892 0.53124994 462.382751 
-389.316528 1417.19995 245.68396 0.413802892 0.53124994 462.382751 
-388.529114 1417.19995 247.047775 0.413802892 0.53124994 462.382751 
-387.74173 1417.19995 248.411591 0.413802892 0.53124994 462.382751 
-386.954315 1417.19995 249.775406 0.413802892 0.53124994 462.382751 
-386.166931 1417.19995 251.139236 0.413802892 0.53124994 462.382751 
-385.379517 1417.19995 252.503052 0.413802892 0.53124994 462.382751 
-384.592102 1417.19995 253.866867 0.410126746 0.531249881 462.698456 
-383.804718 1417.19995 255.230682 0.410126746 0.531249881 462.698456 
-383.017303 1417.19995 256.594513 0.410126746 0.531249881 462.698456 
-382.229919 1417.19995 257.958344 0.410126746 0.531249881 462.698456 
-381.442505 1417.19995 259.322144 0.410126746 0.531249881 462.698456 
-380.65509 1417.19995 260.685974 0.410126746 0.531249881 462.698456 
-379.867706 1417.19995 262.049774 0.410126746 0.531249881 462.698456 
-379.080292 1417.19995 263.413605 0.406457603 0.53124994 463.26062 
-378.292908 1417.19995 264.777435 0.406457603 0.53124994 463.26062 
-377.505493 1417.19995 266.141235 0.406457603 0.53124994 463.26062 
-376.718079 1417.19995 267.505066 0.406457603 0.53124994 463.26062 
-375.930695 1417.19995 268.868896 0.406457603 0.53124994 463.26062 
-375.14328 1417.19995 270.232697 0.406457603 0.53124994 463.26062 
-374.355896 1417.19995 271.596527 0.406457603 0.53124994 463.26062 
-373.568481 1417.19995 272.960327 0.402799249 0.531249881 464.068359 
-372.781097 1417.19995 274.324158 0.402799249 0.531249881 464.068359 
-371.993683 1417.19995 275.687988 0.402799249 0.531249881 464.068359 
-371.206299 1417.19995 277.051788 0.402799249 0.531249881 464.068359 
-370.418884 1417.19995 278.415619 0.402799249 0.531249881 464.068359 
-369.63147 1417.19995 279.779449 0.402799249 0.531249881 464.068359 
-368.844086 1417.19995 281.14325 0.399155527 0.53124994 465.1203 
-368.056671 1417.19995 282.50708 0.399155527 0.53124994 465.1203 
-367.269287 1417.19995 283.870911 0.399155527 0.53124994 465.1203 
-366.481873 1417.19995 285.234711 0.399155527 0.53124994 465.1203 
-365.694458 1417.19995 286.598541 0.399155527 0.53124994 465.1203 
-364.907074 1417.19995 287.962341 0.399155527 0.53124994 465.1203 
-364.119659 1417.19995 289.326172 0.399155527 0.53124994 465.1203 
-363.332275 1417.19995 290.690002 0.395530134 0.531249881 466.414917 
-362.544861 1417.19995 292.053802 0.395530134 0.531249881 466.414917 
-361.757446 1417.19995 293.417633 0.395530134 0.531249881 466.414917 
-360.970062 1417.19995 294.781433 0.395530134 0.531249881 466.414917 
-360.182648 1417.19995 296.145264 0.395530134 0.531249881 466.414917 
-359.395264 1417.19995 297.509094 0.395530134 0.531249881 466.414917 
-358.607849 1417.19995 298.872925 0.395530134 0.531249881 466.414917 
-357.820435 1417.19995 300.236725 0.391926706 0.53124994 467.950104 
-357.033051 1417.19995 301.600555 0.391926706 0.53124994 467.950104 
-356.245636 1417.19995 302.964355 0.391926706 0.53124994 467.950104 
-355.458252 1417.19995 304.328186 0.391926706 0.53124994 467.950104 
-354.670837 1417.19995 305.692017 0.391926706 0.53124994 467.950104 
-353.883453 1417.19995 307.055847 0.391926706 0.53124994 467.950104 
-353.096039 1417.19995 308.419647 0.391926706 0.53124994 467.950104 
-352.308655 1417.19995 309.783447 0.388348639 0.531249881 469.723602 
-351.52124 1417.19995 311.147278 0.388348639 0.531249881 469.723602 
-350.733826 1417.19995 312.511108 0.388348639 0.531249881 469.723602 
-349.946442 1417.19995 313.874939 0.388348639 0.531249881 469.723602 
-349.159027 1417.19995 315.238739 0.388348639 0.531249881 469.723602 
-348.371643 1417.19995 316.60257 0.388348639 0.531249881 469.723602 
-251.29834 1417.19995 398.056702 0.340386987 0.531249881 466.813507 
-249.818512 1417.19995 398.595306 0.340386987 0.531249881 466.813507 
-248.338684 1417.19995 399.133911 0.340386987 0.531249881 466.813507 
-246.858856 1417.19995 399.672546 0.340386987 0.531249881 466.813507 
-245.379028 1417.19995 400.211151 0.340386987 0.531249881 466.813507 
-243.8992 1417.19995 400.749756 0.340386987 0.531249881 466.813507 
-242.419357 1417.19995 401.288391 0.336812735 0.53124994 464.610168 
-240.939545 1417.19995 401.826996 0.336812735 0.53124994 464.610168 
-239.459702 1417.19995 402.365601 0.336812735 0.53124994 464.610168 
-237.979874 1417.19995 402.904205 0.336812735 0.53124994 464.610168 
-236.500031 1417.19995 403.442841 0.336812735 0.53124994 464.610168 
-235.020203 1417.19995 403.981445 0.336812735 0.53124994 464.610168 
-233.540375 1417.19995 404.52005 0.336812735 0.53124994 464.610168 
-232.060547 1417.19995 405.058685 0.333206266 0.531249881 462.643341 
-230.580719 1417.19995 405.59729 0.333206266 0.531249881 462.643341 
-229.100891 1417.19995 406.135895 0.333206266 0.531249881 462.643341 
-227.621048 1417.19995 406.6745 0.333206266 0.531249881 462.643341 
-226.14122 1417.19995 407.213135 0.333206266 0.531249881 462.643341 
-224.661377 1417.19995 407.75174 0.333206266 0.531249881 462.643341 
-223.181564 1417.19995 408.290344 0.333206266 0.531249881 462.643341 
-221.701721 1417.19995 408.828979 0.329570889 0.53124994 460.916016 
-220.221893 1417.19995 409.367584 0.329570889 0.53124994 460.916016 
-218.742065 1417.19995 409.906189 0.329570889 0.53124994 460.916016 
-217.262238 1417.19995 410.444824 0.329570889 0.53124994 460.916016 
-215.78241 1417.19995 410.983429 0.329570889 0.53124994 460.916016 
-214.302567 1417.19995 411.522034 0.329570889 0.53124994 460.916016 
-212.822739 1417.19995 412.060638 0.329570889 0.53124994 460.916016 
-211.342911 1417.19995 412.599274 0.325910062 0.531249881 459.430908 
-209.863068 1417.19995 413.137878 0.325910062 0.531249881 459.430908 
-208.38324 1417.19995 413.676483 0.325910062 0.531249881 459.430908 
-206.903412 1417.19995 414.215118 0.325910062 0.531249881 459.430908 
-205.423584 1417.19995 414.753723 0.325910062 0.531249881 459.430908 
-203.943756 1417.19995 415.292328 0.325910062 0.531249881 459.430908 
-202.463928 1417.19995 415.830933 0.322227478 0.53124994 458.190308 
-200.984085 1417.19995 416.369568 0.322227478 0.53124994 458.190308 
-199.504257 1417.19995 416.908173 0.322227478 0.53124994 458.190308 
-198.024429 1417.19995 417.446777 0.322227478 0.53124994 458.190308 
-196.544601 1417.19995 417.985413 0.322227478 0.53124994 458.190308 
-195.064758 1417.19995 418.524017 0.322227478 0.53124994 458.190308 
-193.58493 1417.19995 419.062622 0.322227478 0.53124994 458.190308 
-192.105103 1417.19995 419.601257 0.318526894 0.53125 457.19635 
-190.625275 1417.19995 420.139862 0.318526894 0.53125 457.19635 
-189.145447 1417.19995 420.678467 0.318526894 0.53125 457.19635 
-187.665619 1417.19995 421.217072 0.318526894 0.53125 457.19635 
-186.185776 1417.19995 421.755707 0.318526894 0.53125 457.19635 
-184.705948 1417.19995 422.294312 0.318526894 0.53125 457.19635 
-183.22612 1417.19995 422.832916 0.318526894 0.53125 457.19635 
-181.746277 1417.19995 423.371552 0.314812183 0.53125 456.4505 
-180.266449 1417.19995 423.910156 0.314812183 0.53125 456.4505 
-178.786621 1417.19995 424.448761 0.314812183 0.53125 456.4505 
-177.306793 1417.19995 424.987396 0.314812183 0.53125 456.4505 
-175.826965 1417.19995 425.526001 0.314812183 0.53125 456.4505 
-174.347137 1417.19995 426.064606 0.314812183 0.53125 456.4505 
-172.867294 1417.19995 426.60321 0.314812183 0.53125 456.4505 
-171.387466 1417.19995 427.141846 0.31108737 0.53125 455.954102 
-169.907639 1417.19995 427.68045 0.31108737 0.53125 455.954102 
-168.427811 1417.19995 428.219055 0.31108737 0.53125 455.954102 
-166.947968 1417.19995 428.75769 0.31108737 0.53125 455.954102 
-165.46814 1417.19995 429.296295 0.31108737 0.53125 455.954102 
-163.988312 1417.19995 429.8349 0.31108737 0.53125 455.954102 
-162.508484 1417.19995 430.373505 0.31108737 0.53125 455.954102 
-161.028656 1417.19995 430.91214 0.307356477 0.53125 455.707916 
-159.548813 1417.19995 431.450745 0.307356477 0.53125 455.707916 
-158.068985 1417.19995 431.989349 0.307356477 0.53125 455.707916 
-156.589157 1417.19995 432.527985 0.307356477 0.53125 455.707916 
-155.109329 1417.19995 433.066589 0.307356477 0.53125 455.707916 
-153.629486 1417.19995 433.605194 0.307356477 0.53125 455.707916 
-152.149658 1417.19995 434.143829 0.303623617 0.53124994 455.71228 
-150.66983 1417.19995 434.682434 0.303623617 0.53124994 455.71228 
-149.190002 1417.19995 435.221039 0.303623617 0.53124994 455.71228 
-147.710175 1417.19995 435.759644 0.303623617 0.53124994 455.71228 
-146.230331 1417.19995 436.298279 0.303623617 0.53124994 455.71228 
-144.750504 1417.19995 436.836884 0.303623617 0.53124994 455.71228 
-143.270676 1417.19995 437.375488 0.303623617 0.53124994 455.71228 
-141.790848 1417.19995 437.914124 0.299892873 0.53124994 455.967316 
-140.311005 1417.19995 438.452728 0.299892873 0.53124994 455.967316 
-138.831177 1417.19995 438.991333 0.299892873 0.53124994 455.967316 
-137.351349 1417.19995 439.529938 0.299892873 0.53124994 455.967316 
-135.871521 1417.19995 440.068573 0.299892873 0.53124994 455.967316 
-134.391693 1417.19995 440.607178 0.299892873 0.53124994 455.967316 
-132.911865 1417.19995 441.145782 0.299892873 0.53124994 455.967316 
-131.432022 1417.19995 441.684418 0.296168327 0.531249881 456.472504 
-129.952194 1417.19995 442.223022 0.296168327 0.531249881 456.472504 
-128.472366 1417.19995 442.761627 0.296168327 0.531249881 456.472504 
-126.992531 1417.19995 443.300262 0.296168327 0.531249881 456.472504 
-125.512695 1417.19995 443.838867 0.296168327 0.531249881 456.472504 
-124.032867 1417.19995 444.377472 0.296168327 0.531249881 456.472504 
-122.55304 1417.19995 444.916077 0.296168327 0.531249881 456.472504 
-121.073212 1417.19995 445.454712 0.292454064 0.53124994 457.227051 
-119.593376 1417.19995 445.993317 0.292454064 0.53124994 457.227051 
-118.113541 1417.19995 446.531921 0.292454064 0.53124994 457.227051 
-116.633713 1417.19995 447.070557 0.292454064 0.53124994 457.227051 
-115.153885 1417.19995 447.609161 0.292454064 0.53124994 457.227051 
-113.674057 1417.19995 448.147766 0.292454064 0.53124994 457.227051 
-112.194214 1417.19995 448.686401 0.292454064 0.53124994 457.227051 
-110.714386 1417.19995 449.225006 0.288754046 0.531249881 458.229645 
-109.234558 1417.19995 449.763611 0.288754046 0.531249881 458.229645 
-107.75473 1417.19995 450.302216 0.288754046 0.531249881 458.229645 
-106.274895 1417.19995 450.840851 0.288754046 0.531249881 458.229645 
-104.795067 1417.19995 451.379456 0.288754046 0.531249881 458.229645 
-103.315231 1417.19995 451.91806 0.288754046 0.531249881 458.229645 
-101.835403 1417.19995 452.456696 0.285072148 0.53124994 459.478821 
-100.355576 1417.19995 452.9953 0.285072148 0.53124994 459.478821 
-98.8757401 1417.19995 453.533905 0.285072148 0.53124994 459.478821 
-97.3959045 1417.19995 454.07251 0.285072148 0.53124994 459.478821 
-95.9160767 1417.19995 454.611145 0.285072148 0.53124994 459.478821 
-94.4362488 1417.19995 455.14975 0.285072148 0.53124994 459.478821 
-92.9564133 1417.19995 455.688354 0.285072148 0.53124994 459.478821 
-91.4765778 1417.19995 456.22699 0.281412184 0.531249881 460.972534 
-89.9967575 1417.19995 456.765594 0.281412184 0.531249881 460.972534 
-88.516922 1417.19995 457.304199 0.281412184 0.531249881 460.972534 
-87.0370941 1417.19995 457.842834 0.281412184 0.531249881 460.972534 
-85.5572586 1417.19995 458.381439 0.281412184 0.531249881 460.972534 
-84.0774231 1417.19995 458.920044 0.281412184 0.531249881 460.972534 
-82.5975952 1417.19995 459.458649 0.281412184 0.531249881 460.972534 
-81.1177673 1417.19995 459.997284 0.277777761 0.53124994 462.708282 
-79.6379395 1417.19995 460.535889 0.277777761 0.53124994 462.708282 
-78.1581039 1417.19995 461.074493 0.277777761 0.53124994 462.708282 
-76.6782684 1417.19995 461.613129 0.277777761 0.53124994 462.708282 
-75.1984406 1417.19995 462.151733 0.277777761 0.53124994 462.708282 
-73.718605 1417.19995 462.690338 0.277777761 0.53124994 462.708282 
-72.2387848 1417.19995 463.228943 0.277777761 0.53124994 462.708282 
-70.7589493 1417.19995 463.767578 0.274172336 0.531249881 464.683502 
-69.2791138 1417.19995 464.306183 0.274172336 0.531249881 464.683502 
-67.7992859 1417.19995 464.844788 0.274172336 0.531249881 464.683502 
-66.3194504 1417.19995 465.383423 0.274172336 0.531249881 464.683502 
-64.8396225 1417.19995 465.922028 0.274172336 0.531249881 464.683502 
-63.3597946 1417.19995 466.460632 0.274172336 0.531249881 464.683502 
63.3601227 1417.19995 466.460571 0.225827575 0.531249881 464.683472 
64.8399582 1417.19995 465.921967 0.225827575 0.531249881 464.683472 
66.3197861 1417.19995 465.383362 0.225827575 0.531249881 464.683472 
67.7996216 1417.19995 464.844727 0.225827575 0.531249881 464.683472 
69.2794495 1417.19995 464.306122 0.225827575 0.531249881 464.683472 
70.7592773 1417.19995 463.767517 0.225827575 0.531249881 464.683472 
72.2391129 1417.19995 463.228882 0.222222194 0.53124994 462.708252 
73.7189407 1417.19995 462.690277 0.222222194 0.53124994 462.708252 
75.1987762 1417.19995 462.151672 0.222222194 0.53124994 462.708252 
76.6785965 1417.19995 461.613037 0.222222194 0.53124994 462.708252 
78.158432 1417.19995 461.074432 0.222222194 0.53124994 462.708252 
79.6382675 1417.19995 460.535828 0.222222194 0.53124994 462.708252 
81.1180954 1417.19995 459.997192 0.222222194 0.53124994 462.708252 
82.5979309 1417.19995 459.458588 0.218587756 0.531249881 460.972504 
84.0777512 1417.19995 458.919983 0.218587756 0.531249881 460.972504 
85.5575867 1417.19995 458.381348 0.218587756 0.531249881 460.972504 
87.0374222 1417.19995 457.842743 0.218587756 0.531249881 460.972504 
88.5172501 1417.19995 457.304138 0.218587756 0.531249881 460.972504 
89.9970779 1417.19995 456.765503 0.218587756 0.531249881 460.972504 
91.4769058 1417.19995 456.226898 0.218587756 0.531249881 460.972504 
92.9567413 1417.19995 455.688293 0.214927778 0.53124994 459.478821 
94.4365692 1417.19995 455.149658 0.214927778 0.53124994 459.478821 
95.9163971 1417.19995 454.611053 0.214927778 0.53124994 459.478821 
97.3962326 1417.19995 454.072449 0.214927778 0.53124994 459.478821 
98.8760681 1417.19995 453.533813 0.214927778 0.53124994 459.478821 
100.355896 1417.19995 452.995209 0.214927778 0.53124994 459.478821 
101.835724 1417.19995 452.456604 0.214927778 0.53124994 459.478821 
103.315552 1417.19995 451.917999 0.211245894 0.531249881 458.229614 
104.795387 1417.19995 451.379364 0.211245894 0.531249881 458.229614 
106.275223 1417.19995 450.840759 0.211245894 0.531249881 458.229614 
107.755051 1417.19995 450.302155 0.211245894 0.531249881 458.229614 
109.234879 1417.19995 449.763519 0.211245894 0.531249881 458.229614 
110.714706 1417.19995 449.224915 0.211245894 0.531249881 458.229614 
112.194534 1417.19995 448.68631 0.207545862 0.53124994 457.22699 
113.67437 1417.19995 448.147675 0.207545862 0.53124994 457.22699 
115.154205 1417.19995 447.60907 0.207545862 0.53124994 457.22699 
116.634033 1417.19995 447.070465 0.207545862 0.53124994 457.22699 
118.113861 1417.19995 446.53183 0.207545862 0.53124994 457.22699 
119.593689 1417.19995 445.993225 0.207545862 0.53124994 457.22699 
121.073524 1417.19995 445.45462 0.207545862 0.53124994 457.22699 
122.55336 1417.19995 444.915985 0.203831583 0.53125 456.472443 
124.033188 1417.19995 444.37738 0.203831583 0.53125 456.472443 
125.513016 1417.19995 443.838776 0.203831583 0.53125 456.472443 
126.992844 1417.19995 443.30014 0.203831583 0.53125 456.472443 
128.472672 1417.19995 442.761536 0.203831583 0.53125 456.472443 
129.952515 1417.19995 442.222931 0.203831583 0.53125 456.472443 
131.432343 1417.19995 441.684296 0.203831583 0.53125 456.472443 
132.91217 1417.19995 441.145691 0.200107038 0.53125 455.967255 
134.391998 1417.19995 440.607086 0.200107038 0.53125 455.967255 
135.871826 1417.19995 440.068451 0.200107038 0.53125 455.967255 
137.351654 1417.19995 439.529846 0.200107038 0.53125 455.967255 
138.831497 1417.19995 438.991241 0.200107038 0.53125 455.967255 
140.311325 1417.19995 438.452606 0.200107038 0.53125 455.967255 
141.791153 1417.19995 437.914001 0.200107038 0.53125 455.967255 
143.270981 1417.19995 437.375397 0.196376294 0.53125 455.71228 
144.750809 1417.19995 436.836761 0.196376294 0.53125 455.71228 
146.230652 1417.19995 436.298157 0.196376294 0.53125 455.71228 
147.71048 1417.19995 435.759552 0.196376294 0.53125 455.71228 
149.190308 1417.19995 435.220917 0.196376294 0.53125 455.71228 
150.670135 1417.19995 434.682312 0.196376294 0.53125 455.71228 
152.149963 1417.19995 434.143707 0.196376294 0.53125 455.71228 
153.629807 1417.19995 433.605072 0.192643434 0.53125 455.707855 
155.109634 1417.19995 433.066467 0.192643434 0.53125 455.707855 
156.589462 1417.19995 432.527863 0.192643434 0.53125 455.707855 
158.06929 1417.19995 431.989227 0.192643434 0.53125 455.707855 
159.549118 1417.19995 431.450623 0.192643434 0.53125 455.707855 
161.028946 1417.19995 430.912018 0.192643434 0.53125 455.707855 
162.508789 1417.19995 430.373383 0.188912541 0.53124994 455.954071 
163.988617 1417.19995 429.834778 0.188912541 0.53124994 455.954071 
165.468445 1417.19995 429.296173 0.188912541 0.53124994 455.954071 
166.948273 1417.19995 428.757538 0.188912541 0.53124994 455.954071 
168.428101 1417.19995 428.218933 0.188912541 0.53124994 455.954071 
169.907944 1417.19995 427.680328 0.188912541 0.53124994 455.954071 
171.387772 1417.19995 427.141693 0.188912541 0.53124994 455.954071 
172.867599 1417.19995 426.603088 0.185187712 0.53124994 456.45047 
174.347427 1417.19995 426.064484 0.185187712 0.53124994 456.45047 
175.827255 1417.19995 425.525848 0.185187712 0.53124994 456.45047 
177.307098 1417.19995 424.987244 0.185187712 0.53124994 456.45047 
178.786926 1417.19995 424.448639 0.185187712 0.53124994 456.45047 
180.266754 1417.19995 423.910004 0.185187712 0.53124994 456.45047 
181.746582 1417.19995 423.371399 0.185187712 0.53124994 456.45047 
183.22641 1417.19995 422.832794 0.181473017 0.531249881 457.19632 
184.706238 1417.19995 422.294159 0.181473017 0.531249881 457.19632 
186.186081 1417.19995 421.755554 0.181473017 0.531249881 457.19632 
187.665909 1417.19995 421.216949 0.181473017 0.531249881 457.19632 
189.145737 1417.19995 420.678314 0.181473017 0.531249881 457.19632 
190.625565 1417.19995 420.139709 0.181473017 0.531249881 457.19632 
192.105392 1417.19995 419.601105 0.181473017 0.531249881 457.19632 
193.585236 1417.19995 419.062469 0.177772418 0.53124994 458.190277 
195.065063 1417.19995 418.523865 0.177772418 0.53124994 458.190277 
196.544891 1417.19995 417.98526 0.177772418 0.53124994 458.190277 
198.024719 1417.19995 417.446625 0.177772418 0.53124994 458.190277 
199.504547 1417.19995 416.90802 0.177772418 0.53124994 458.190277 
200.984375 1417.19995 416.369415 0.177772418 0.53124994 458.190277 
202.464218 1417.19995 415.83078 0.177772418 0.53124994 458.190277 
203.944046 1417.19995 415.292175 0.174089834 0.531249881 459.430817 
205.423874 1417.19995 414.753571 0.174089834 0.531249881 459.430817 
206.903702 1417.19995 414.214935 0.174089834 0.531249881 459.430817 
208.38353 1417.19995 413.676331 0.174089834 0.531249881 459.430817 
209.863373 1417.19995 413.137726 0.174089834 0.531249881 459.430817 
211.343201 1417.19995 412.599091 0.174089834 0.531249881 459.430817 
212.823029 1417.19995 412.060486 0.170429021 0.53124994 460.915955 
214.302856 1417.19995 411.521881 0.170429021 0.53124994 460.915955 
215.782684 1417.19995 410.983276 0.170429021 0.53124994 460.915955 
217.262512 1417.19995 410.444641 0.170429021 0.53124994 460.915955 
218.742355 1417.19995 409.906036 0.170429021 0.53124994 460.915955 
220.222183 1417.19995 409.367432 0.170429021 0.53124994 460.915955 
221.702011 1417.19995 408.828796 0.170429021 0.53124994 460.915955 
223.181854 1417.19995 408.290192 0.16679363 0.531249881 462.643311 
224.661682 1417.19995 407.751587 0.16679363 0.531249881 462.643311 
226.14151 1417.19995 407.212952 0.16679363 0.531249881 462.643311 
227.621338 1417.19995 406.674347 0.16679363 0.531249881 462.643311 
229.101166 1417.19995 406.135742 0.16679363 0.531249881 462.643311 
230.580994 1417.19995 405.597107 0.16679363 0.531249881 462.643311 
232.060822 1417.19995 405.058502 0.16679363 0.531249881 462.643311 
233.540649 1417.19995 404.519897 0.163187161 0.53124994 464.610138 
235.020477 1417.19995 403.981262 0.163187161 0.53124994 464.610138 
236.50032 1417.19995 403.442657 0.163187161 0.53124994 464.610138 
237.980164 1417.19995 402.904053 0.163187161 0.53124994 464.610138 
239.459976 1417.19995 402.365417 0.163187161 0.53124994 464.610138 
240.939819 1417.19995 401.826813 0.163187161 0.53124994 464.610138 
242.419647 1417.19995 401.288208 0.163187161 0.53124994 464.610138 
243.899475 1417.19995 400.749573 0.159612909 0.531249881 466.813538 
245.379303 1417.19995 400.210968 0.159612909 0.531249881 466.813538 
246.859131 1417.19995 399.672363 0.159612909 0.531249881 466.813538 
248.338959 1417.19995 399.133728 0.159612909 0.531249881 466.813538 
249.818787 1417.19995 398.595123 0.159612909 0.531249881 466.813538 
251.29863 1417.19995 398.056519 0.159612909 0.531249881 466.813538 
360.043945 1757.78027 323.341553 0.111651227 0.700892806 469.723602 
360.83136 1757.78027 321.977722 0.111651227 0.700892806 469.723602 
361.618744 1757.78027 320.613892 0.111651227 0.700892806 469.723602 
362.406158 1757.78027 319.250061 0.111651227 0.700892806 469.723602 
363.193542 1757.78027 317.886261 0.111651227 0.700892806 469.723602 
363.980957 1757.78027 316.52243 0.111651227 0.700892806 469.723602 
364.768372 1757.78027 315.15863 0.108073182 0.700892806 467.950195 
365.555756 1757.78027 313.7948 0.108073182 0.700892806 467.950195 
366.34317 1757.78027 312.430969 0.108073182 0.700892806 467.950195 
367.130554 1757.78027 311.067169 0.108073182 0.700892806 467.950195 
367.917969 1757.78027 309.703339 0.108073182 0.700892806 467.950195 
368.705353 1757.78027 308.339539 0.108073182 0.700892806 467.950195 
369.492767 1757.78027 306.975708 0.108073182 0.700892806 467.950195 
370.280151 1757.78027 305.611877 0.104469724 0.700892806 466.414978 
371.067566 1757.78027 304.248077 0.104469724 0.700892806 466.414978 
371.85498 1757.78027 302.884247 0.104469724 0.700892806 466.414978 
372.642365 1757.78027 301.520416 0.104469724 0.700892806 466.414978 
373.429779 1757.78027 300.156616 0.104469724 0.700892806 466.414978 
374.217163 1757.78027 298.792786 0.104469724 0.700892806 466.414978 
375.004578 1757.78027 297.428955 0.104469724 0.700892806 466.414978 
375.791992 1757.78027 296.065155 0.100844353 0.700892806 465.120392 
376.579376 1757.78027 294.701324 0.100844353 0.700892806 465.120392 
377.366791 1757.78027 293.337524 0.100844353 0.700892806 465.120392 
378.154175 1757.78027 291.973694 0.100844353 0.700892806 465.120392 
378.941589 1757.78027 290.609863 0.100844353 0.700892806 465.120392 
379.728973 1757.78027 289.246033 0.100844353 0.700892806 465.120392 
380.516388 1757.78027 287.882233 0.100844353 0.700892806 465.120392 
381.303772 1757.78027 286.518402 0.0972006544 0.700892806 464.06842 
382.091187 1757.78027 285.154602 0.0972006544 0.700892806 464.06842 
382.878601 1757.78027 283.790771 0.0972006544 0.700892806 464.06842 
383.665985 1757.78027 282.426941 0.0972006544 0.700892806 464.06842 
384.4534 1757.78027 281.063141 0.0972006544 0.700892806 464.06842 
385.240784 1757.78027 279.69931 0.0972006544 0.700892806 464.06842 
386.028198 1757.78027 278.33551 0.0935423151 0.700892806 463.260651 
386.815613 1757.78027 276.97168 0.0935423151 0.700892806 463.260651 
387.602997 1757.78027 275.607849 0.0935423151 0.700892806 463.260651 
388.390411 1757.78027 274.244019 0.0935423151 0.700892806 463.260651 
389.177795 1757.78027 272.880219 0.0935423151 0.700892806 463.260651 
389.96521 1757.78027 271.516388 0.0935423151 0.700892806 463.260651 
390.752594 1757.78027 270.152588 0.0935423151 0.700892806 463.260651 
391.540009 1757.78027 268.788757 0.0898731425 0.700892806 462.698517 
392.327423 1757.78027 267.424927 0.0898731425 0.700892806 462.698517 
393.114807 1757.78027 266.061127 0.0898731425 0.700892806 462.698517 
393.902222 1757.78027 264.697296 0.0898731425 0.700892806 462.698517 
394.689606 1757.78027 263.333466 0.0898731425 0.700892806 462.698517 
395.47702 1757.78027 261.969666 0.0898731425 0.700892806 462.698517 
396.264404 1757.78027 260.605835 0.0898731425 0.700892806 462.698517 
397.051819 1757.78027 259.242004 0.0861970037 0.700892806 462.382782 
397.839233 1757.78027 257.878204 0.0861970037 0.700892806 462.382782 
398.626617 1757.78027 256.514374 0.0861970037 0.700892806 462.382782 
399.414032 1757.78027 255.150558 0.0861970037 0.700892806 462.382782 
400.201416 1757.78027 253.786743 0.0861970037 0.700892806 462.382782 
400.988831 1757.78027 252.422928 0.0861970037 0.700892806 462.382782 
401.776215 1757.78027 251.059097 0.0861970037 0.700892806 462.382782 
402.563629 1757.78027 249.695282 0.0825178102 0.700892806 462.313995 
403.351044 1757.78027 248.331467 0.0825178102 0.700892806 462.313995 
404.138428 1757.78027 246.967651 0.0825178102 0.700892806 462.313995 
404.925842 1757.78027 245.603821 0.0825178102 0.700892806 462.313995 
405.713226 1757.78027 244.240005 0.0825178102 0.700892806 462.313995 
406.500641 1757.78027 242.87619 0.0825178102 0.700892806 462.313995 
407.288025 1757.78027 241.51236 0.0825178102 0.700892806 462.313995 
408.075439 1757.78027 240.148544 0.0788394734 0.700892806 462.492249 
408.862854 1757.78027 238.784729 0.0788394734 0.700892806 462.492249 
409.650238 1757.78027 237.420914 0.0788394734 0.700892806 462.492249 
410.437653 1757.78027 236.057083 0.0788394734 0.700892806 462.492249 
411.225037 1757.78027 234.693268 0.0788394734 0.700892806 462.492249 
412.012451 1757.78027 233.329453 0.0788394734 0.700892806 462.492249 
412.799866 1757.78027 231.965637 0.0751659423 0.700892806 462.917297 
413.58725 1757.78027 230.601807 0.0751659423 0.700892806 462.917297 
414.374664 1757.78027 229.237991 0.0751659423 0.700892806 462.917297 
415.162048 1757.78027 227.874176 0.0751659423 0.700892806 462.917297 
415.949463 1757.78027 226.510345 0.0751659423 0.700892806 462.917297 
416.736847 1757.78027 225.14653 0.0751659423 0.700892806 462.917297 
417.524261 1757.78027 223.782715 0.0751659423 0.700892806 462.917297 
418.311676 1757.78027 222.4189 0.071501106 0.700892806 463.58844 
419.09906 1757.78027 221.055069 0.071501106 0.700892806 463.58844 
419.886475 1757.78027 219.691254 0.071501106 0.700892806 463.58844 
420.673859 1757.78027 218.327438 0.071501106 0.700892806 463.58844 
421.461273 1757.78027 216.963623 0.071501106 0.700892806 463.58844 
422.248657 1757.78027 215.599792 0.071501106 0.700892806 463.58844 
423.036072 1757.78027 214.235977 0.071501106 0.700892806 463.58844 
423.823486 1757.78027 212.872162 0.0678487793 0.700892806 464.504578 
424.61087 1757.78027 211.508331 0.0678487793 0.700892806 464.504578 
425.398285 1757.78027 210.144516 0.0678487793 0.700892806 464.504578 
426.185669 1757.78027 208.780701 0.0678487793 0.700892806 464.504578 
426.973083 1757.78027 207.41687 0.0678487793 0.700892806 464.504578 
427.760468 1757.78027 206.053055 0.0678487793 0.700892806 464.504578 
428.547882 1757.78027 204.68924 0.0678487793 0.700892806 464.504578 
429.335297 1757.78027 203.325424 0.0642127544 0.700892806 465.664337 
430.122681 1757.78027 201.961594 0.0642127544 0.700892806 465.664337 
430.910095 1757.78027 200.597778 0.0642127544 0.700892806 465.664337 
431.697479 1757.78027 199.233963 0.0642127544 0.700892806 465.664337 
432.484894 1757.78027 197.870148 0.0642127544 0.700892806 465.664337 
433.272278 1757.78027 196.506317 0.0642127544 0.700892806 465.664337 
434.059692 1757.78027 195.142502 0.0642127544 0.700892806 465.664337 
434.847107 1757.78027 193.778687 0.0605966635 0.700892806 467.065826 
435.634491 1757.78027 192.414856 0.0605966635 0.700892806 467.065826 
436.421906 1757.78027 191.051041 0.0605966635 0.700892806 467.065826 
437.20929 1757.78027 189.687225 0.0605966635 0.700892806 467.065826 
437.996704 1757.78027 188.32341 0.0605966635 0.700892806 467.065826 
438.784119 1757.78027 186.959595 0.0605966635 0.700892806 467.065826 
439.571503 1757.78027 185.595764 0.0570040569 0.700892806 468.70694 
440.358917 1757.78027 184.231949 0.0570040569 0.700892806 468.70694 
441.146301 1757.78027 182.868134 0.0570040569 0.700892806 468.70694 
441.933716 1757.78027 181.504303 0.0570040569 0.700892806 468.70694 
442.7211 1757.78027 180.140488 0.0570040569 0.700892806 468.70694 
443.508514 1757.78027 178.776672 0.0570040569 0.700892806 468.70694 
444.295898 1757.78027 177.412842 0.0570040569 0.700892806 468.70694 
445.083313 1757.78027 176.049026 0.053438317 0.700892806 470.585144 
445.870728 1757.78027 174.685211 0.053438317 0.700892806 470.585144 
446.658112 1757.78027 173.321381 0.053438317 0.700892806 470.585144 
447.445526 1757.78027 171.957581 0.053438317 0.700892806 470.585144 
448.23291 1757.78027 170.59375 0.053438317 0.700892806 470.585144 
449.020325 1757.78027 169.229919 0.053438317 0.700892806 470.585144 
449.807739 1757.78027 167.866119 0.053438317 0.700892806 470.585144 
450.595123 1757.78027 166.502289 0.0499026775 0.700892806 472.697632 
451.382538 1757.78027 165.138474 0.0499026775 0.700892806 472.697632 
452.169922 1757.78027 163.774658 0.0499026775 0.700892806 472.697632 
452.957336 1757.78027 162.410828 0.0499026775 0.700892806 472.697632 
453.74472 1757.78027 161.047028 0.0499026775 0.700892806 472.697632 
454.532135 1757.78027 159.683197 0.0499026775 0.700892806 472.697632 
455.319519 1757.78027 158.319382 0.0499026775 0.700892806 472.697632 
456.106934 1757.78027 156.955566 0.0464002155 0.700892806 475.04126 
456.894348 1757.78027 155.591736 0.0464002155 0.700892806 475.04126 
457.681732 1757.78027 154.227921 0.0464002155 0.700892806 475.04126 
458.469147 1757.78027 152.864105 0.0464002155 0.700892806 475.04126 
459.256531 1757.78027 151.500275 0.0464002155 0.700892806 475.04126 
460.043945 1757.78027 150.136459 0.0464002155 0.700892806 475.04126 
483.649628 1757.78027 16.2621689 0.999358237 0.700892806 479.415924 
483.37616 1757.78027 14.7112885 0.999358237 0.700892806 479.415924 
483.102692 1757.78027 13.1604156 0.999358237 0.700892806 479.415924 
482.829224 1757.78027 11.6095352 0.999358237 0.700892806 479.415924 
482.555756 1757.78027 10.0586548 0.999358237 0.700892806 479.415924 
482.282318 1757.78027 8.50777435 0.999358237 0.700892806 479.415924 
482.00885 1757.78027 6.95689392 0.995848775 0.700892806 477.718597 
481.735382 1757.78027 5.40602112 0.995848775 0.700892806 477.718597 
481.461914 1757.78027 3.85514069 0.995848775 0.700892806 477.718597 
481.188446 1757.78027 2.30426788 0.995848775 0.700892806 477.718597 
480.915009 1757.78027 0.753387451 0.995848775 0.700892806 477.718597 
480.641541 1757.78027 -0.797492981 0.995848775 0.700892806 477.718597 
480.368073 1757.78027 -2.34837341 0.995848775 0.700892806 477.718597 
480.094604 1757.78027 -3.89925385 0.992316008 0.700892806 476.255096 
479.821136 1757.78027 -5.45012665 0.992316008 0.700892806 476.255096 
479.547699 1757.78027 -7.00100708 0.992316008 0.700892806 476.255096 
479.274231 1757.78027 -8.55188751 0.992316008 0.700892806 476.255096 
479.000763 1757.78027 -10.1027603 0.992316008 0.700892806 476.255096 
478.727295 1757.78027 -11.6536407 0.992316008 0.700892806 476.255096 
478.453827 1757.78027 -13.2045135 0.992316008 0.700892806 476.255096 
478.180389 1757.78027 -14.7554016 0.988763273 0.700892806 475.027618 
477.906921 1757.78027 -16.306282 0.988763273 0.700892806 475.027618 
477.633453 1757.78027 -17.8571548 0.988763273 0.700892806 475.027618 
477.359985 1757.78027 -19.4080353 0.988763273 0.700892806 475.027618 
477.086517 1757.78027 -20.9589119 0.988763273 0.700892806 475.027618 
476.81308 1757.78027 -22.5097885 0.988763273 0.700892806 475.027618 
476.539612 1757.78027 -24.0606689 0.988763273 0.700892806 475.027618 
476.266144 1757.78027 -25.6115456 0.985193849 0.700892806 474.037994 
475.992676 1757.78027 -27.162426 0.985193849 0.700892806 474.037994 
475.719208 1757.78027 -28.7133026 0.985193849 0.700892806 474.037994 
475.44577 1757.78027 -30.264183 0.985193849 0.700892806 474.037994 
475.172302 1757.78027 -31.8150597 0.985193849 0.700892806 474.037994 
474.898834 1757.78027 -33.3659363 0.985193849 0.700892806 474.037994 
474.625366 1757.78027 -34.9168129 0.981611311 0.700892806 473.28775 
474.351898 1757.78027 -36.4676971 0.981611311 0.700892806 473.28775 
474.078461 1757.78027 -38.0185738 0.981611311 0.700892806 473.28775 
473.804993 1757.78027 -39.5694504 0.981611311 0.700892806 473.28775 
473.531525 1757.78027 -41.120327 0.981611311 0.700892806 473.28775 
473.258057 1757.78027 -42.6712074 0.981611311 0.700892806 473.28775 
472.984619 1757.78027 -44.2220879 0.981611311 0.700892806 473.28775 
472.711151 1757.78027 -45.7729645 0.978019238 0.700892806 472.777954 
472.437683 1757.78027 -47.3238411 0.978019238 0.700892806 472.777954 
472.164215 1757.78027 -48.8747215 0.978019238 0.700892806 472.777954 
471.890747 1757.78027 -50.4255981 0.978019238 0.700892806 472.777954 
471.61731 1757.78027 -51.9764786 0.978019238 0.700892806 472.777954 
471.343842 1757.78027 -53.527359 0.978019238 0.700892806 472.777954 
471.070374 1757.78027 -55.0782318 0.978019238 0.700892806 472.777954 
470.796906 1757.78027 -56.6291122 0.974421263 0.700892806 472.50946 
470.523438 1757.78027 -58.1799927 0.974421263 0.700892806 472.50946 
470.25 1757.78027 -59.7308693 0.974421263 0.700892806 472.50946 
469.976532 1757.78027 -61.2817459 0.974421263 0.700892806 472.50946 
469.703064 1757.78027 -62.8326263 0.974421263 0.700892806 472.50946 
469.429596 1757.78027 -64.3834991 0.974421263 0.700892806 472.50946 
469.156128 1757.78027 -65.9343872 0.974421263 0.700892806 472.50946 
468.88269 1757.78027 -67.48526 0.970820963 0.700892806 472.482635 
468.609222 1757.78027 -69.0361404 0.970820963 0.700892806 472.482635 
468.335754 1757.78027 -70.5870209 0.970820963 0.700892806 472.482635 
468.062286 1757.78027 -72.1378937 0.970820963 0.700892806 472.482635 
467.788818 1757.78027 -73.6887741 0.970820963 0.700892806 472.482635 
467.515381 1757.78027 -75.2396545 0.970820963 0.700892806 472.482635 
467.241913 1757.78027 -76.7905273 0.970820963 0.700892806 472.482635 
466.968445 1757.78027 -78.3414078 0.967222214 0.700892806 472.697601 
466.694977 1757.78027 -79.8922882 0.967222214 0.700892806 472.697601 
466.421509 1757.78027 -81.4431686 0.967222214 0.700892806 472.697601 
466.148071 1757.78027 -82.9940414 0.967222214 0.700892806 472.697601 
465.874603 1757.78027 -84.5449219 0.967222214 0.700892806 472.697601 
465.601135 1757.78027 -86.0958023 0.967222214 0.700892806 472.697601 
465.327667 1757.78027 -87.6466827 0.963628471 0.700892806 473.153961 
465.054199 1757.78027 -89.1975555 0.963628471 0.700892806 473.153961 
464.780762 1757.78027 -90.748436 0.963628471 0.700892806 473.153961 
464.507294 1757.78027 -92.2993164 0.963628471 0.700892806 473.153961 
464.233826 1757.78027 -93.8501892 0.963628471 0.700892806 473.153961 
463.960358 1757.78027 -95.4010696 0.963628471 0.700892806 473.153961 
463.68689 1757.78027 -96.9519501 0.963628471 0.700892806 473.153961 
463.413452 1757.78027 -98.5028229 0.96004355 0.700892806 473.851013 
463.139984 1757.78027 -100.053711 0.96004355 0.700892806 473.851013 
462.866516 1757.78027 -101.604584 0.96004355 0.700892806 473.851013 
462.593048 1757.78027 -103.155464 0.96004355 0.700892806 473.851013 
462.31958 1757.78027 -104.706345 0.96004355 0.700892806 473.851013 
462.046143 1757.78027 -106.257217 0.96004355 0.700892806 473.851013 
461.772675 1757.78027 -107.808098 0.96004355 0.700892806 473.851013 
461.499207 1757.78027 -109.358978 0.956470966 0.700892806 474.787659 
461.225739 1757.78027 -110.909851 0.956470966 0.700892806 474.787659 
460.952271 1757.78027 -112.460732 0.956470966 0.700892806 474.787659 
460.678833 1757.78027 -114.011612 0.956470966 0.700892806 474.787659 
460.405365 1757.78027 -115.562485 0.956470966 0.700892806 474.787659 
460.131897 1757.78027 -117.113373 0.956470966 0.700892806 474.787659 
459.858429 1757.78027 -118.664246 0.956470966 0.700892806 474.787659 
459.584961 1757.78027 -120.215118 0.952914178 0.700892806 475.962555 
459.311523 1757.78027 -121.766006 0.952914178 0.700892806 475.962555 
459.038055 1757.78027 -123.316879 0.952914178 0.700892806 475.962555 
458.764587 1757.78027 -124.86776 0.952914178 0.700892806 475.962555 
458.491119 1757.78027 -126.41864 0.952914178 0.700892806 475.962555 
458.217682 1757.78027 -127.969513 0.952914178 0.700892806 475.962555 
457.944214 1757.78027 -129.520401 0.952914178 0.700892806 475.962555 
457.670746 1757.78027 -131.071274 0.949376702 0.700892806 477.373962 
457.397278 1757.78027 -132.622147 0.949376702 0.700892806 477.373962 
457.12381 1757.78027 -134.173035 0.949376702 0.700892806 477.373962 
456.850372 1757.78027 -135.723907 0.949376702 0.700892806 477.373962 
456.576904 1757.78027 -137.27478 0.949376702 0.700892806 477.373962 
456.303436 1757.78027 -138.825668 0.949376702 0.700892806 477.373962 
456.029968 1757.78027 -140.376541 0.945861816 0.700892806 479.019714 
455.7565 1757.78027 -141.927429 0.945861816 0.700892806 479.019714 
455.483063 1757.78027 -143.478302 0.945861816 0.700892806 479.019714 
455.209595 1757.78027 -145.029175 0.945861816 0.700892806 479.019714 
454.936127 1757.78027 -146.580048 0.945861816 0.700892806 479.019714 
454.662659 1757.78027 -148.13092 0.945861816 0.700892806 479.019714 
454.389191 1757.78027 -149.681808 0.945861816 0.700892806 479.019714 
454.115753 1757.78027 -151.232697 0.94237262 0.700892806 480.89743 
453.842285 1757.78027 -152.783569 0.94237262 0.700892806 480.89743 
453.568817 1757.78027 -154.334442 0.94237262 0.700892806 480.89743 
453.295349 1757.78027 -155.885315 0.94237262 0.700892806 480.89743 
453.021881 1757.78027 -157.436203 0.94237262 0.700892806 480.89743 
452.748444 1757.78027 -158.987091 0.94237262 0.700892806 480.89743 
452.474976 1757.78027 -160.537964 0.94237262 0.700892806 480.89743 
452.201508 1757.78027 -162.088837 0.938912332 0.700892806 483.004395 
451.92804 1757.78027 -163.639709 0.938912332 0.700892806 483.004395 
451.654572 1757.78027 -165.190598 0.938912332 0.700892806 483.004395 
451.381134 1757.78027 -166.741486 0.938912332 0.700892806 483.004395 
451.107666 1757.78027 -168.292358 0.938912332 0.700892806 483.004395 
450.834198 1757.78027 -169.843231 0.938912332 0.700892806 483.004395 
450.56073 1757.78027 -171.394104 0.938912332 0.700892806 483.004395 
450.287262 1757.78027 -172.944977 0.935483575 0.700892806 485.337708 
450.013824 1757.78027 -174.495865 0.935483575 0.700892806 485.337708 
449.740356 1757.78027 -176.046753 0.935483575 0.700892806 485.337708 
449.466888 1757.78027 -177.597626 0.935483575 0.700892806 485.337708 
449.19342 1757.78027 -179.148499 0.935483575 0.700892806 485.337708 
448.919952 1757.78027 -180.699371 0.935483575 0.700892806 485.337708 
380.950195 1757.78027 -298.426453 0.889407635 0.700892806 489.105804 
379.743835 1757.78027 -299.438721 0.889407635 0.700892806 489.105804 
378.537476 1757.78027 -300.450958 0.889407635 0.700892806 489.105804 
377.331116 1757.78027 -301.463226 0.889407635 0.700892806 489.105804 
376.124756 1757.78027 -302.475494 0.889407635 0.700892806 489.105804 
374.918365 1757.78027 -303.487762 0.889407635 0.700892806 489.105804 
373.712006 1757.78027 -304.500031 0.885971844 0.700892806 487.329102 
372.505615 1757.78027 -305.512299 0.885971844 0.700892806 487.329102 
371.299255 1757.78027 -306.524567 0.885971844 0.700892806 487.329102 
370.092896 1757.78027 -307.536804 0.885971844 0.700892806 487.329102 
368.886536 1757.78027 -308.549072 0.885971844 0.700892806 487.329102 
367.680145 1757.78027 -309.56134 0.885971844 0.700892806 487.329102 
366.473785 1757.78027 -310.573608 0.885971844 0.700892806 487.329102 
365.267395 1757.78027 -311.585876 0.88251245 0.700892806 485.781128 
364.061035 1757.78027 -312.598145 0.88251245 0.700892806 485.781128 
362.854675 1757.78027 -313.610413 0.88251245 0.700892806 485.781128 
361.648315 1757.78027 -314.622681 0.88251245 0.700892806 485.781128 
360.441925 1757.78027 -315.634918 0.88251245 0.700892806 485.781128 
