ply
format ascii 1.0
comment created by gply, a Houdini tool.
comment converted from .[b]geo
comment for more information about Houdini, try:
comment www.sidefx.com
element vertex 118
property float x
property float y
property float z
property float uv1
property float uv2
property float uv3
property uchar red
property uchar green
property uchar blue
element face 0
property list uchar int vertex_indices
end_header
-1804.8363 545.383545 -220.500168 0 0 0 255 255 255 
-1774.56079 545.383545 -126.098267 0 0.0172409993 0 255 255 255 
-1742.93286 545.383545 -32.1611557 0 0.0344830006 0 255 255 255 
-1707.63879 545.383545 60.4616699 0 0.0517240018 0 255 255 255 
-1667.59106 545.383545 151.12236 0 0.0689660013 0 255 255 255 
-1621.56702 545.383484 238.878021 0 0.0862070024 0 255 255 255 
-1568.53723 545.383484 322.57724 0 0.103448004 0 255 255 255 
-1508.6189 545.383423 401.489807 0 0.120690003 0 255 255 255 
-1442.74744 545.383423 475.511292 0 0.137931004 0 255 255 255 
-1372.53516 545.383301 545.475769 0 0.155172005 0 255 255 255 
-1298.91589 545.331665 612.264893 0 0.172414005 0 255 255 255 
-1221.25928 545.269043 672.952393 0 0.189655006 0 255 255 255 
-1140.98779 545.497681 728.662537 0 0.206897005 0 255 255 255 
-1057.96228 546.277832 779.364563 0 0.224138007 0 255 255 255 
-972.85376 547.815613 824.698425 0 0.241378993 0 255 255 255 
-885.794739 550.193481 865.123352 0 0.258621007 0 255 255 255 
-796.876648 553.629944 899.826294 0 0.275862008 0 255 255 255 
-706.552002 558.20636 928.645142 0 0.293103009 0 255 255 255 
-614.991028 564.149353 950.630676 0 0.310344994 0 255 255 255 
-522.830444 571.466553 965.758728 0 0.327585995 0 255 255 255 
-430.412109 580.482971 972.469727 0 0.34482801 0 255 255 255 
-337.969849 591.066528 971.530823 0 0.362069011 0 255 255 255 
-247.971359 603.356873 961.233093 0 0.379310012 0 255 255 255 
-159.393066 617.477783 942.265747 0 0.396551996 0 255 255 255 
-73.368927 633.32074 914.869263 0 0.413792998 0 255 255 255 
9.60861206 650.807495 879.26123 0 0.431033999 0 255 255 255 
88.8735657 669.849365 835.765991 0 0.448276013 0 255 255 255 
164.220779 690.119751 787.95282 0 0.465517014 0 255 255 255 
233.546371 711.966797 737.664673 0 0.482758999 0 255 255 255 
296.209351 735.90686 685.714417 0 0.5 0 255 255 255 
351.577087 762.47113 632.814209 0 0.517241001 0 255 255 255 
399.466492 792.218079 579.614319 0 0.534483016 0 255 255 255 
440.160217 825.742981 526.405396 0 0.551724017 0 255 255 255 
474.33313 863.734741 473.103394 0 0.568965018 0 255 255 255 
502.740479 906.876404 419.411072 0 0.586206973 0 255 255 255 
526.102966 955.604248 365.128265 0 0.603447974 0 255 255 255 
545.230164 1009.94312 310.237793 0 0.620689988 0 255 255 255 
560.886719 1069.48779 254.73674 0 0.637930989 0 255 255 255 
573.097656 1134.04395 199.125656 0 0.65517199 0 255 255 255 
583.123901 1202.37659 142.839081 0 0.672414005 0 255 255 255 
592.08313 1267.60364 91.4011078 0 0.689655006 0 255 255 255 
598.806335 1329.80591 48.7572021 0 0.70689702 0 255 255 255 
601.224304 1399.83142 6.77621841 0 0.724138021 0 255 255 255 
600.871765 1473.84094 -32.2155647 0 0.741379023 0 255 255 255 
598.301819 1549.87195 -67.7274475 0 0.758620977 0 255 255 255 
594.954102 1625.03137 -97.23172 0 0.775861979 0 255 255 255 
591.2948 1700.04907 -120.727066 0 0.79310298 0 255 255 255 
588.540649 1773.03882 -137.414062 0 0.810344994 0 255 255 255 
587.824341 1842.08752 -147.204544 0 0.827585995 0 255 255 255 
589.410706 1931.88733 -150.902832 0 0.84482801 0 255 255 255 
589.352234 2029.84436 -151.943771 0 0.862069011 0 255 255 255 
587.528992 2127.80078 -151.290497 0 0.879310012 0 255 255 255 
587.282593 2225.75781 -152.160477 0 0.896552026 0 255 255 255 
587.80835 2324.33887 -153.789093 0 0.913793027 0 255 255 255 
588.526123 2423.47266 -155.622589 0 0.931034982 0 255 255 255 
589.224609 2522.60596 -157.451248 0 0.948275983 0 255 255 255 
589.733276 2621.73975 -159.103622 0 0.965516984 0 255 255 255 
589.764648 2720.87354 -160.284698 0 0.982758999 0 255 255 255 
588.305969 2820.00928 -159.971878 0 1 0 255 255 255 
206.962631 2815.58838 -542.277649 1 1 0 255 255 255 
206.733292 2716.45459 -540.899231 1 0.982758999 0 255 255 255 
207.706223 2617.31934 -540.726135 1 0.965516984 0 255 255 255 
209.064285 2518.18408 -540.93335 1 0.948275983 0 255 255 255 
210.575516 2419.04883 -541.282776 1 0.931034982 0 255 255 255 
212.102249 2319.91309 -541.636108 1 0.913793027 0 255 255 255 
213.474106 2220.33203 -541.824158 1 0.896552026 0 255 255 255 
214.222885 2120.24707 -541.400085 1 0.879310012 0 255 255 255 
213.699478 2020.16199 -539.746948 1 0.862069011 0 255 255 255 
214.599869 1920.07739 -539.460815 1 0.84482801 0 255 255 255 
218.375168 1813.46082 -539.999451 1 0.827585995 0 255 255 255 
232.779678 1691.19873 -535.329041 1 0.810344994 0 255 255 255 
257.102539 1574.51318 -525.889099 1 0.79310298 0 255 255 255 
289.846497 1462.64929 -512.130981 1 0.775861979 0 255 255 255 
329.769836 1354.58911 -493.585602 1 0.758620977 0 255 255 255 
375.16803 1251.50378 -469.507263 1 0.741379023 0 255 255 255 
424.412964 1150.84119 -438.579315 1 0.724138021 0 255 255 255 
475.342529 1052.1936 -397.659729 1 0.70689702 0 255 255 255 
524.958313 953.635681 -342.785919 1 0.689655006 0 255 255 255 
566.414856 865.572021 -278.923248 1 0.672414005 0 255 255 255 
600.90332 784.287964 -211.358978 1 0.65517199 0 255 255 255 
629.171021 704.078247 -136.9431 1 0.637930989 0 255 255 255 
648.68689 625.844788 -54.9541969 1 0.620689988 0 255 255 255 
658.359253 550.156372 33.8877487 1 0.603447974 0 255 255 255 
656.1203 478.353088 128.821381 1 0.586206973 0 255 255 255 
640.304382 412.07547 228.037277 1 0.568965018 0 255 255 255 
610.108459 352.874359 328.635651 1 0.551724017 0 255 255 255 
566.078979 301.711609 427.15564 1 0.534483016 0 255 255 255 
510.009766 258.604797 520.485352 1 0.517241001 0 255 255 255 
444.301514 222.681641 606.540222 1 0.5 0 255 255 255 
371.369934 192.567108 684.479431 1 0.482758999 0 255 255 255 
293.117371 166.811371 754.278442 1 0.465517014 0 255 255 255 
210.883286 144.178558 816.175232 1 0.448276013 0 255 255 255 
124.263565 123.186676 870.866455 1 0.431033999 0 255 255 255 
31.5559387 103.613419 915.825439 1 0.413792998 0 255 255 255 
-66.0566101 85.6669312 950.359192 1 0.396551996 0 255 255 255 
-167.17511 69.5860596 973.908386 1 0.379310012 0 255 255 255 
-270.755737 55.4744263 986.474182 1 0.362069011 0 255 255 255 
-374.035034 43.6624451 988.132996 1 0.34482801 0 255 255 255 
-477.241455 33.6151428 981.170898 1 0.327585995 0 255 255 255 
-579.107422 25.5339966 964.977234 1 0.310344994 0 255 255 255 
-679.099243 19.0550842 941.383484 1 0.293103009 0 255 255 255 
-776.723083 14.1139221 910.610046 1 0.275862008 0 255 255 255 
-871.800964 10.4444885 873.793884 1 0.258621007 0 255 255 255 
-964.01886 7.92706299 831.200378 1 0.241378993 0 255 255 255 
-1053.44946 6.31393433 783.680908 1 0.224138007 0 255 255 255 
-1139.31494 5.50646973 731.244934 1 0.206897005 0 255 255 255 
-1221.6167 5.27020264 673.995544 1 0.189655006 0 255 255 255 
-1299.9469 5.33267212 612.530029 1 0.172414005 0 255 255 255 
-1373.02368 5.38372803 545.93689 1 0.155172005 0 255 255 255 
-1443.10608 5.38363647 475.850952 1 0.137931004 0 255 255 255 
-1508.89087 5.38360596 401.713898 1 0.120690003 0 255 255 255 
-1568.73645 5.38354492 322.715546 1 0.103448004 0 255 255 255 
-1621.7041 5.38354492 238.95697 1 0.0862070024 0 255 255 255 
-1667.67749 5.38354492 151.163666 1 0.0689660013 0 255 255 255 
-1707.68616 5.38354492 60.4809837 1 0.0517240018 0 255 255 255 
-1742.95312 5.38354492 -32.1538658 1 0.0344830006 0 255 255 255 
-1774.5658 5.38354492 -126.096649 1 0.0172409993 0 255 255 255 
-1804.8363 5.38354492 -220.500168 1 0 0 255 255 255 
