ply
format ascii 1.0
comment created by gply, a Houdini tool.
comment converted from .[b]geo
comment for more information about Houdini, try:
comment www.sidefx.com
element vertex 764
property float x
property float y
property float z
property float uv1
property float uv2
property float uv3
element face 0
property list uchar int vertex_indices
end_header
-135.036102 1439.12244 -392.271027 0.420634955 0.666667998 0 
-135.602722 1439.12244 -393.753754 0.428571463 0.666667998 0 
-136.169342 1439.12244 -395.236481 0.43650797 0.666667998 0 
-136.735962 1439.12244 -396.719208 0.444444478 0.666667998 0 
-137.302582 1439.12244 -398.201904 0.452380955 0.666667998 0 
-137.869202 1439.12244 -399.684631 0.460317492 0.666667998 0 
-138.435822 1439.12244 -401.167358 0.468254 0.666667998 0 
-139.002411 1439.12244 -402.650085 0.476190478 0.666667998 0 
-139.569061 1439.12244 -404.132812 0.484126985 0.666667998 0 
-140.135681 1439.12244 -405.61554 0.492063493 0.666667998 0 
-140.702286 1439.12244 -407.098267 0.5 0.666667998 0 
-123.486015 1458.43982 -296.278259 0 0.672225356 0 
-124.164032 1458.43982 -297.71344 0 0.672225356 0 
-124.842056 1458.43982 -299.148651 0 0.672225356 0 
-125.520081 1458.43982 -300.583862 0 0.671762228 0 
-126.198105 1458.43982 -302.019043 0.0158730149 0.672225356 0 
-126.876129 1458.43982 -303.454285 0.0238095224 0.672225356 0 
-127.554161 1458.43982 -304.889496 0.0317460001 0.672225356 0 
-128.232178 1458.43982 -306.324677 0.0396825075 0.672225356 0 
-128.910202 1458.43982 -307.759857 0.0476190448 0.672225356 0 
-129.588226 1458.43982 -309.195068 0.0555555522 0.672225356 0 
-130.266251 1458.43982 -310.63031 0.0634920597 0.672225356 0 
-130.944275 1458.43982 -312.065491 0.0714285672 0.672225356 0 
-131.622299 1458.43982 -313.500702 0.0793650746 0.672225356 0 
-132.300323 1458.43982 -314.935883 0.0873015523 0.672225356 0 
-132.978333 1458.43982 -316.371094 0.0952380598 0.672225356 0 
-133.656372 1458.43982 -317.806274 0.103174567 0.672225356 0 
-134.334396 1458.43982 -319.241516 0.111111075 0.672225356 0 
-135.012421 1458.43982 -320.676727 0.119047612 0.672225356 0 
-135.690445 1458.43982 -322.111938 0.126984119 0.672225356 0 
-136.368454 1458.43982 -323.547089 0.134920627 0.672225356 0 
-137.046478 1458.43982 -324.9823 0.142857134 0.672225356 0 
-137.724518 1458.43982 -326.417542 0.150793642 0.672688484 0 
-138.402527 1458.43982 -327.852753 0.158730149 0.672688484 0 
-139.080566 1458.43982 -329.287933 0.166666657 0.672688484 0 
-139.758591 1458.43982 -330.723145 0.174603164 0.672688484 0 
-140.436615 1458.43982 -332.158356 0.182539701 0.672688484 0 
-141.114624 1458.43982 -333.593506 0.190476209 0.672688484 0 
-141.792664 1458.43982 -335.028748 0.198412716 0.672688484 0 
-142.470673 1458.43982 -336.463959 0.206349224 0.672688484 0 
-143.148712 1458.43982 -337.89917 0.214285731 0.672688484 0 
-143.826736 1458.43982 -339.334351 0.222222239 0.672688484 0 
-144.504761 1458.43982 -340.769562 0.230158746 0.672688484 0 
-145.18277 1458.43982 -342.204773 0.238095284 0.672688484 0 
-145.860794 1458.43982 -343.639984 0.246031791 0.672688484 0 
-146.538818 1458.43982 -345.075165 0.253968298 0.672688484 0 
-147.216858 1458.43982 -346.510376 0.261904806 0.672688484 0 
-147.894867 1458.43982 -347.945587 0.269841313 0.672688484 0 
-148.572906 1458.43982 -349.380798 0.277777851 0.672688484 0 
-149.250916 1458.43982 -350.815979 0.285714328 0.672688484 0 
-149.92894 1458.43982 -352.25119 0.293650866 0.672688484 0 
-150.606964 1458.43982 -353.686401 0.301587343 0.672688484 0 
-151.285004 1458.43982 -355.121582 0.30952388 0.672688484 0 
-151.963013 1458.43982 -356.556793 0.317460388 0.672688484 0 
-152.641052 1458.43982 -357.992004 0.325396895 0.672688484 0 
-153.319077 1458.43982 -359.427246 0.333333403 0.673151612 0 
-153.997086 1458.43982 -360.862396 0.34126991 0.673151612 0 
-154.67511 1458.43982 -362.297607 0.349206448 0.673151612 0 
-155.353134 1458.43982 -363.732819 0.357142925 0.673151612 0 
-156.031158 1458.43982 -365.16803 0.365079433 0.673151612 0 
-156.709198 1458.43982 -366.603241 0.37301594 0.673151612 0 
-157.387207 1458.43982 -368.038452 0.380952448 0.673151612 0 
-158.065231 1458.43982 -369.473633 0.388888955 0.673151612 0 
-158.743256 1458.43982 -370.908813 0.396825463 0.673151612 0 
-159.42128 1458.43982 -372.344025 0.40476197 0.673151612 0 
-160.099304 1458.43982 -373.779236 0.412698478 0.673151612 0 
-160.777328 1458.43982 -375.214478 0.420634955 0.673151612 0 
-161.455353 1458.43982 -376.649658 0.428571463 0.673151612 0 
-162.133362 1458.43982 -378.084839 0.43650797 0.673151612 0 
-162.811401 1458.43982 -379.52005 0.444444478 0.673151612 0 
-163.489426 1458.43982 -380.955261 0.452380955 0.673151612 0 
-164.16745 1458.43982 -382.390472 0.460317492 0.673151612 0 
-164.845474 1458.43982 -383.825684 0.468254 0.673151612 0 
-165.523499 1458.43982 -385.260895 0.476190478 0.673151612 0 
-166.201508 1458.43982 -386.696075 0.484126985 0.673151612 0 
-142.055969 1477.7572 -279.152985 0 0.68195045 0 
-142.84256 1477.7572 -280.531677 0 0.68195045 0 
-143.629166 1477.7572 -281.910339 0 0.68195045 0 
-144.415771 1477.7572 -283.289093 0.00793650746 0.68195045 0 
-145.202347 1477.7572 -284.667755 0.0158730149 0.68195045 0 
-145.988953 1477.7572 -286.046448 0.0238095224 0.68195045 0 
-146.775543 1477.7572 -287.425171 0.0317460001 0.68195045 0 
-147.562134 1477.7572 -288.803864 0.0396825075 0.68195045 0 
-148.34874 1477.7572 -290.182526 0.0476190448 0.68195045 0 
-149.13533 1477.7572 -291.561218 0.0555555522 0.68195045 0 
-149.921921 1477.7572 -292.939941 0.0634920597 0.68195045 0 
-150.708511 1477.7572 -294.318634 0.0714285672 0.68195045 0 
-151.495102 1477.7572 -295.697296 0.0793650746 0.68195045 0 
-152.281693 1477.7572 -297.076019 0.0873015523 0.68195045 0 
-153.068298 1477.7572 -298.454712 0.0952380598 0.68195045 0 
-153.854889 1477.7572 -299.833374 0.103174567 0.68195045 0 
-154.641479 1477.7572 -301.212097 0.111111075 0.68195045 0 
-155.42807 1477.7572 -302.59079 0.119047612 0.68195045 0 
-156.214661 1477.7572 -303.969482 0.126984119 0.68195045 0 
-157.001251 1477.7572 -305.348175 0.134920627 0.682413578 0 
-157.787857 1477.7572 -306.726868 0.142857134 0.682413578 0 
-158.574448 1477.7572 -308.10556 0.150793642 0.682413578 0 
-159.361038 1477.7572 -309.484253 0.158730149 0.682413578 0 
-160.147629 1477.7572 -310.862946 0.166666657 0.682413578 0 
-160.934219 1477.7572 -312.241638 0.174603164 0.682413578 0 
-161.720825 1477.7572 -313.620361 0.182539701 0.682413578 0 
-162.507416 1477.7572 -314.999023 0.190476209 0.682413578 0 
-163.294006 1477.7572 -316.377716 0.198412716 0.682413578 0 
-164.080597 1477.7572 -317.756439 0.206349224 0.682413578 0 
-164.867188 1477.7572 -319.135101 0.214285731 0.682413578 0 
-165.653778 1477.7572 -320.513794 0.222222239 0.682413578 0 
-166.440369 1477.7572 -321.892517 0.230158746 0.682413578 0 
-167.226974 1477.7572 -323.27121 0.238095284 0.682413578 0 
-168.013565 1477.7572 -324.649872 0.246031791 0.682413578 0 
-168.800156 1477.7572 -326.028564 0.253968298 0.682413578 0 
-169.586746 1477.7572 -327.407288 0.261904806 0.682413578 0 
-170.373337 1477.7572 -328.78595 0.269841313 0.682413578 0 
-171.159943 1477.7572 -330.164642 0.285714328 0.682876647 0 
-171.946533 1477.7572 -331.543365 0.293650866 0.682876647 0 
-172.733124 1477.7572 -332.922058 0.301587343 0.682876647 0 
-173.519714 1477.7572 -334.30072 0.30952388 0.682876647 0 
-174.306305 1477.7572 -335.679443 0.317460388 0.682876647 0 
-175.092896 1477.7572 -337.058136 0.325396895 0.682876647 0 
-175.879486 1477.7572 -338.436798 0.333333403 0.682876647 0 
-176.666092 1477.7572 -339.815521 0.34126991 0.682876647 0 
-177.452682 1477.7572 -341.194214 0.349206448 0.682876647 0 
-178.239273 1477.7572 -342.572906 0.357142925 0.682876647 0 
-179.025864 1477.7572 -343.951599 0.365079433 0.682876647 0 
-179.812454 1477.7572 -345.330292 0.37301594 0.682876647 0 
-180.59906 1477.7572 -346.708984 0.380952448 0.682876647 0 
-181.385651 1477.7572 -348.087677 0.388888955 0.682876647 0 
-182.172241 1477.7572 -349.46637 0.396825463 0.682876647 0 
-182.958832 1477.7572 -350.845062 0.40476197 0.682876647 0 
-183.745422 1477.7572 -352.223785 0.412698478 0.682876647 0 
-184.532013 1477.7572 -353.602448 0.420634955 0.682876647 0 
-185.318604 1477.7572 -354.98114 0.428571463 0.682876647 0 
-186.105209 1477.7572 -356.359863 0.43650797 0.682876647 0 
-186.8918 1477.7572 -357.738525 0.444444478 0.682876647 0 
-187.678391 1477.7572 -359.117218 0.452380955 0.682876647 0 
-188.464996 1477.7572 -360.495972 0.460317492 0.682876647 0 
-189.251572 1477.7572 -361.874634 0.468254 0.682876647 0 
-190.038177 1477.7572 -363.253326 0.476190478 0.682876647 0 
-190.824783 1477.7572 -364.632019 0.484126985 0.683339775 0 
-191.611374 1477.7572 -366.010742 0.492063493 0.683339775 0 
-160.749069 1497.07446 -262.302399 0 0.691675246 0 
-161.64032 1497.07446 -263.615845 0 0.691675246 0 
-162.53157 1497.07446 -264.929321 0.00793650746 0.691675246 0 
-163.422836 1497.07446 -266.242798 0.0158730149 0.691675246 0 
-164.314072 1497.07446 -267.556244 0.0238095224 0.691675246 0 
-165.205338 1497.07446 -268.86972 0.0317460001 0.691675246 0 
-166.096588 1497.07446 -270.183197 0.0396825075 0.691675246 0 
-166.987854 1497.07446 -271.496674 0.0476190448 0.691675246 0 
-167.879105 1497.07446 -272.81012 0.0555555522 0.691675246 0 
-168.770355 1497.07446 -274.123596 0.0634920597 0.691675246 0 
-169.661621 1497.07446 -275.437073 0.0714285672 0.691675246 0 
-170.552856 1497.07446 -276.750488 0.0793650746 0.691675246 0 
-171.444122 1497.07446 -278.063965 0.0873015523 0.691675246 0 
-172.335373 1497.07446 -279.377441 0.0952380598 0.691675246 0 
-173.226639 1497.07446 -280.690918 0.103174567 0.692138314 0 
-174.117889 1497.07446 -282.004364 0.111111075 0.692138314 0 
-175.00914 1497.07446 -283.317841 0.119047612 0.692138314 0 
-175.900406 1497.07446 -284.631317 0.126984119 0.692138314 0 
-176.791656 1497.07446 -285.944794 0.134920627 0.692138314 0 
-177.682907 1497.07446 -287.25824 0.142857134 0.692138314 0 
-178.574158 1497.07446 -288.571716 0.150793642 0.692138314 0 
-179.465424 1497.07446 -289.885193 0.158730149 0.692138314 0 
-180.356674 1497.07446 -291.198669 0.166666657 0.692138314 0 
-181.247925 1497.07446 -292.512115 0.174603164 0.692138314 0 
-182.139191 1497.07446 -293.825562 0.182539701 0.692138314 0 
-183.030441 1497.07446 -295.139038 0.190476209 0.692138314 0 
-183.921692 1497.07446 -296.452484 0.198412716 0.692138314 0 
-184.812943 1497.07446 -297.765961 0.206349224 0.692138314 0 
-185.704208 1497.07446 -299.079437 0.214285731 0.692138314 0 
-186.595459 1497.07446 -300.392883 0.222222239 0.692138314 0 
-187.48671 1497.07446 -301.70636 0.230158746 0.692138314 0 
-188.37796 1497.07446 -303.019806 0.238095284 0.692138314 0 
-189.269226 1497.07446 -304.333282 0.246031791 0.692138314 0 
-190.160492 1497.07446 -305.646759 0.253968298 0.692138314 0 
-191.051727 1497.07446 -306.960205 0.261904806 0.692138314 0 
-191.942993 1497.07446 -308.273682 0.269841313 0.692601383 0 
-192.834244 1497.07446 -309.587158 0.277777851 0.692601383 0 
-193.72551 1497.07446 -310.900604 0.285714328 0.692601383 0 
-194.616745 1497.07446 -312.21405 0.293650866 0.692601383 0 
-195.508011 1497.07446 -313.527527 0.301587343 0.692601383 0 
-196.399261 1497.07446 -314.841003 0.30952388 0.692601383 0 
-197.290512 1497.07446 -316.154449 0.317460388 0.692601383 0 
-198.181763 1497.07446 -317.467926 0.325396895 0.692601383 0 
-199.073029 1497.07446 -318.781403 0.333333403 0.692601383 0 
-199.964294 1497.07446 -320.094879 0.34126991 0.692601383 0 
-200.85553 1497.07446 -321.408325 0.349206448 0.692601383 0 
-201.746796 1497.07446 -322.721802 0.357142925 0.692601383 0 
-202.638046 1497.07446 -324.035278 0.365079433 0.692601383 0 
-203.529312 1497.07446 -325.348755 0.37301594 0.692601383 0 
-204.420547 1497.07446 -326.662201 0.380952448 0.692601383 0 
-205.311813 1497.07446 -327.975647 0.388888955 0.692601383 0 
-206.203064 1497.07446 -329.289124 0.396825463 0.692601383 0 
-207.09433 1497.07446 -330.6026 0.40476197 0.692601383 0 
-207.98558 1497.07446 -331.916046 0.412698478 0.692601383 0 
-208.876831 1497.07446 -333.229523 0.420634955 0.692601383 0 
-209.768097 1497.07446 -334.542999 0.428571463 0.692601383 0 
-210.659332 1497.07446 -335.856445 0.43650797 0.692601383 0 
-211.550598 1497.07446 -337.169922 0.444444478 0.692601383 0 
-212.441849 1497.07446 -338.483398 0.452380955 0.692601383 0 
-213.333115 1497.07446 -339.796844 0.460317492 0.692601383 0 
-214.224365 1497.07446 -341.110321 0.468254 0.693064451 0 
-215.115616 1497.07446 -342.423767 0.476190478 0.693064451 0 
-216.006882 1497.07446 -343.737244 0.484126985 0.693064451 0 
-216.898117 1497.07446 -345.050659 0.492063493 0.693064451 0 
-179.597717 1516.39185 -245.712646 0 0.701399744 0 
-180.588684 1516.39185 -246.952576 0 0.701399744 0 
-181.579666 1516.39185 -248.192566 0.00793650746 0.701399744 0 
-182.570633 1516.39185 -249.43251 0.0158730149 0.701399744 0 
-183.561615 1516.39185 -250.67247 0.0238095224 0.701399744 0 
-184.552582 1516.39185 -251.912415 0.0317460001 0.701399744 0 
-185.543579 1516.39185 -253.152374 0.0396825075 0.701399744 0 
-186.534546 1516.39185 -254.392319 0.0476190448 0.701399744 0 
-187.525528 1516.39185 -255.632278 0.0555555522 0.701399744 0 
-188.516495 1516.39185 -256.872223 0.0634920597 0.701399744 0 
-189.507477 1516.39185 -258.112183 0.0714285672 0.701399744 0 
-190.498474 1516.39185 -259.352173 0.0873015523 0.701862812 0 
-191.489441 1516.39185 -260.592102 0.0952380598 0.701862812 0 
-192.480423 1516.39185 -261.832062 0.103174567 0.701862812 0 
-193.47139 1516.39185 -263.072021 0.111111075 0.701862812 0 
-194.462372 1516.39185 -264.311981 0.119047612 0.701862812 0 
-195.453354 1516.39185 -265.551941 0.126984119 0.701862812 0 
-196.444336 1516.39185 -266.79187 0.134920627 0.701862812 0 
-197.435303 1516.39185 -268.03183 0.142857134 0.701862812 0 
-198.426285 1516.39185 -269.27179 0.150793642 0.701862812 0 
-199.417267 1516.39185 -270.511749 0.158730149 0.701862812 0 
-200.408234 1516.39185 -271.751678 0.166666657 0.701862812 0 
-201.399216 1516.39185 -272.991638 0.174603164 0.701862812 0 
-202.390198 1516.39185 -274.231628 0.182539701 0.701862812 0 
-203.381165 1516.39185 -275.471558 0.190476209 0.701862812 0 
-204.372147 1516.39185 -276.711548 0.198412716 0.701862812 0 
-205.363129 1516.39185 -277.951477 0.206349224 0.701862812 0 
-206.354095 1516.39185 -279.191437 0.214285731 0.701862812 0 
-207.345093 1516.39185 -280.431396 0.222222239 0.701862812 0 
-208.33606 1516.39185 -281.671356 0.230158746 0.701862812 0 
-209.327042 1516.39185 -282.911285 0.238095284 0.701862812 0 
-210.318008 1516.39185 -284.151245 0.246031791 0.701862812 0 
-211.30899 1516.39185 -285.391205 0.253968298 0.702325881 0 
-212.299973 1516.39185 -286.631165 0.261904806 0.702325881 0 
-213.290955 1516.39185 -287.871124 0.269841313 0.702325881 0 
-214.281921 1516.39185 -289.111053 0.277777851 0.702325881 0 
-215.272919 1516.39185 -290.351044 0.285714328 0.702325881 0 
-216.263885 1516.39185 -291.590973 0.293650866 0.702325881 0 
-217.254868 1516.39185 -292.830933 0.301587343 0.702325881 0 
-218.24585 1516.39185 -294.070892 0.30952388 0.702325881 0 
-219.236816 1516.39185 -295.310852 0.317460388 0.702325881 0 
-220.227798 1516.39185 -296.550812 0.325396895 0.702325881 0 
-221.218781 1516.39185 -297.790771 0.333333403 0.702325881 0 
-222.209747 1516.39185 -299.030731 0.34126991 0.702325881 0 
-223.200729 1516.39185 -300.27066 0.349206448 0.702325881 0 
-224.191711 1516.39185 -301.510651 0.357142925 0.702325881 0 
-225.182678 1516.39185 -302.75058 0.365079433 0.702325881 0 
-226.17366 1516.39185 -303.99054 0.37301594 0.702325881 0 
-227.164642 1516.39185 -305.230469 0.380952448 0.702325881 0 
-228.155624 1516.39185 -306.470459 0.388888955 0.702325881 0 
-229.146591 1516.39185 -307.710388 0.396825463 0.702325881 0 
-230.137573 1516.39185 -308.950378 0.40476197 0.702325881 0 
-231.12854 1516.39185 -310.190308 0.412698478 0.702325881 0 
-232.119537 1516.39185 -311.430267 0.420634955 0.702325881 0 
-233.110519 1516.39185 -312.670258 0.428571463 0.702325881 0 
-234.101486 1516.39185 -313.910187 0.43650797 0.702325881 0 
-235.092468 1516.39185 -315.150146 0.444444478 0.702788949 0 
-236.083435 1516.39185 -316.390076 0.452380955 0.702788949 0 
-237.074432 1516.39185 -317.630066 0.460317492 0.702788949 0 
-238.065399 1516.39185 -318.869995 0.468254 0.702788949 0 
-239.056381 1516.39185 -320.109955 0.476190478 0.702788949 0 
-240.047348 1516.39185 -321.349915 0.484126985 0.702788949 0 
-241.03833 1516.39185 -322.589874 0.492063493 0.702788949 0 
-242.029297 1516.39185 -323.829834 0.5 0.702788949 0 
-198.632172 1535.70923 -229.364914 0 0.711124122 0 
-199.71698 1535.70923 -230.523682 0.00793650746 0.711124122 0 
-200.801773 1535.70923 -231.682434 0.0158730149 0.711124122 0 
-201.886581 1535.70923 -232.841202 0.0238095224 0.711124122 0 
-202.971375 1535.70923 -233.999969 0.0317460001 0.711124122 0 
-204.056183 1535.70923 -235.158737 0.0396825075 0.711124122 0 
-205.140991 1535.70923 -236.31749 0.0476190448 0.711124122 0 
-206.225784 1535.70923 -237.476257 0.0555555522 0.711124122 0 
-207.310577 1535.70923 -238.635025 0.0634920597 0.711124122 0 
-208.395386 1535.70923 -239.793793 0.0714285672 0.711124122 0 
-209.480194 1535.70923 -240.952545 0.0793650746 0.711124122 0 
-210.564987 1535.70923 -242.111282 0.0873015523 0.711587191 0 
-211.649796 1535.70923 -243.270081 0.0952380598 0.711587191 0 
-212.734604 1535.70923 -244.428833 0.103174567 0.711587191 0 
-213.819397 1535.70923 -245.58757 0.111111075 0.711587191 0 
-214.904205 1535.70923 -246.746368 0.119047612 0.711587191 0 
-215.989014 1535.70923 -247.905136 0.126984119 0.711587191 0 
-217.073792 1535.70923 -249.063873 0.134920627 0.711587191 0 
-218.1586 1535.70923 -250.222626 0.142857134 0.711587191 0 
-219.243408 1535.70923 -251.381424 0.150793642 0.711587191 0 
-220.328201 1535.70923 -252.540161 0.158730149 0.711587191 0 
-221.41301 1535.70923 -253.698914 0.166666657 0.711587191 0 
-222.497818 1535.70923 -254.857712 0.174603164 0.711587191 0 
-223.582611 1535.70923 -256.016449 0.182539701 0.711587191 0 
-224.667419 1535.70923 -257.175201 0.190476209 0.711587191 0 
-225.752228 1535.70923 -258.333984 0.198412716 0.711587191 0 
-226.837021 1535.70923 -259.492737 0.206349224 0.711587191 0 
-227.921814 1535.70923 -260.651489 0.214285731 0.711587191 0 
-229.006622 1535.70923 -261.810272 0.222222239 0.711587191 0 
-230.091415 1535.70923 -262.969025 0.230158746 0.711587191 0 
-231.176224 1535.70923 -264.127808 0.238095284 0.711587191 0 
-232.261032 1535.70923 -265.28656 0.246031791 0.711587191 0 
-233.345825 1535.70923 -266.445312 0.253968298 0.712050259 0 
-234.430634 1535.70923 -267.604095 0.261904806 0.712050259 0 
-235.515442 1535.70923 -268.762848 0.269841313 0.712050259 0 
-236.600235 1535.70923 -269.92157 0.277777851 0.712050259 0 
-237.685043 1535.70923 -271.080383 0.285714328 0.712050259 0 
-238.769852 1535.70923 -272.239136 0.293650866 0.712050259 0 
-239.854645 1535.70923 -273.397888 0.301587343 0.712050259 0 
-240.939453 1535.70923 -274.556671 0.30952388 0.712050259 0 
-242.024261 1535.70923 -275.715424 0.317460388 0.712050259 0 
-243.109039 1535.70923 -276.874176 0.325396895 0.712050259 0 
-244.193848 1535.70923 -278.032928 0.333333403 0.712050259 0 
-245.278656 1535.70923 -279.191711 0.34126991 0.712050259 0 
-246.363449 1535.70923 -280.350464 0.349206448 0.712050259 0 
-247.448257 1535.70923 -281.509216 0.357142925 0.712050259 0 
-248.533066 1535.70923 -282.66803 0.365079433 0.712050259 0 
-249.617859 1535.70923 -283.826752 0.37301594 0.712050259 0 
-250.702667 1535.70923 -284.985504 0.380952448 0.712050259 0 
-251.787476 1535.70923 -286.144287 0.388888955 0.712050259 0 
-252.872253 1535.70923 -287.30304 0.396825463 0.712050259 0 
-253.957062 1535.70923 -288.461792 0.40476197 0.712050259 0 
-255.04187 1535.70923 -289.620575 0.412698478 0.712050259 0 
-256.126678 1535.70923 -290.779327 0.420634955 0.712050259 0 
-257.211487 1535.70923 -291.93811 0.428571463 0.712050259 0 
-258.296265 1535.70923 -293.096863 0.43650797 0.712050259 0 
-259.381073 1535.70923 -294.255615 0.444444478 0.712513328 0 
-260.465881 1535.70923 -295.414398 0.452380955 0.712513328 0 
-261.55069 1535.70923 -296.573151 0.460317492 0.712513328 0 
-262.635498 1535.70923 -297.731873 0.468254 0.712513328 0 
-263.720276 1535.70923 -298.890686 0.476190478 0.712513328 0 
-264.805115 1535.70923 -300.049438 0.484126985 0.712513328 0 
-265.889893 1535.70923 -301.208191 0.492063493 0.712513328 0 
-266.974701 1535.70923 -302.366974 0.5 0.712513328 0 
-217.879425 1555.02661 -213.235794 0.00793650746 0.72084856 0 
-219.0513 1555.02661 -214.306412 0.0158730149 0.72084856 0 
-220.223175 1555.02661 -215.377075 0.0238095224 0.72084856 0 
-221.39505 1555.02661 -216.447693 0.0317460001 0.72084856 0 
-222.566925 1555.02661 -217.518311 0.0396825075 0.72084856 0 
-223.73877 1555.02661 -218.588959 0.0476190448 0.72084856 0 
-224.910645 1555.02661 -219.659576 0.0555555522 0.72084856 0 
-226.08252 1555.02661 -220.730194 0.0634920597 0.72084856 0 
-227.254395 1555.02661 -221.800812 0.0714285672 0.72084856 0 
-228.426254 1555.02661 -222.87146 0.0793650746 0.72084856 0 
-229.598145 1555.02661 -223.942108 0.0873015523 0.72084856 0 
-230.770004 1555.02661 -225.012726 0.0952380598 0.72084856 0 
-231.941864 1555.02661 -226.083344 0.103174567 0.721311629 0 
-233.113739 1555.02661 -227.153992 0.111111075 0.721311629 0 
-234.285614 1555.02661 -228.224609 0.119047612 0.721311629 0 
-235.457489 1555.02661 -229.295258 0.126984119 0.721311629 0 
-236.629364 1555.02661 -230.365875 0.134920627 0.721311629 0 
-237.801239 1555.02661 -231.436508 0.142857134 0.721311629 0 
-238.973099 1555.02661 -232.507126 0.150793642 0.721311629 0 
-240.144958 1555.02661 -233.577744 0.158730149 0.721311629 0 
-241.316833 1555.02661 -234.648361 0.166666657 0.721311629 0 
-242.488693 1555.02661 -235.719009 0.174603164 0.721311629 0 
-243.660583 1555.02661 -236.789658 0.182539701 0.721311629 0 
-244.832458 1555.02661 -237.860275 0.190476209 0.721311629 0 
-246.004318 1555.02661 -238.930893 0.198412716 0.721311629 0 
-247.176178 1555.02661 -240.001541 0.206349224 0.721311629 0 
-248.348053 1555.02661 -241.072159 0.214285731 0.721311629 0 
-249.519913 1555.02661 -242.142776 0.222222239 0.721311629 0 
-250.691772 1555.02661 -243.213394 0.230158746 0.721311629 0 
-251.863678 1555.02661 -244.284042 0.238095284 0.721311629 0 
-253.035538 1555.02661 -245.354691 0.246031791 0.721311629 0 
-254.207397 1555.02661 -246.425308 0.253968298 0.721311629 0 
-255.379272 1555.02661 -247.495926 0.261904806 0.721311629 0 
-256.551147 1555.02661 -248.566574 0.269841313 0.721774697 0 
-257.723022 1555.02661 -249.637192 0.277777851 0.721774697 0 
-258.894897 1555.02661 -250.707825 0.285714328 0.721774697 0 
-260.066772 1555.02661 -251.778442 0.293650866 0.721774697 0 
-261.238617 1555.02661 -252.849091 0.301587343 0.721774697 0 
-262.410492 1555.02661 -253.919708 0.30952388 0.721774697 0 
-263.582367 1555.02661 -254.990326 0.317460388 0.721774697 0 
-264.754211 1555.02661 -256.060944 0.325396895 0.721774697 0 
-265.926086 1555.02661 -257.131592 0.333333403 0.721774697 0 
-267.097961 1555.02661 -258.20224 0.34126991 0.721774697 0 
-268.269836 1555.02661 -259.272858 0.349206448 0.721774697 0 
-269.441711 1555.02661 -260.343475 0.357142925 0.721774697 0 
-270.613586 1555.02661 -261.414124 0.365079433 0.721774697 0 
-271.785461 1555.02661 -262.484741 0.37301594 0.721774697 0 
-272.957336 1555.02661 -263.555359 0.380952448 0.721774697 0 
-274.129181 1555.02661 -264.625977 0.388888955 0.721774697 0 
-275.301086 1555.02661 -265.696655 0.396825463 0.721774697 0 
-276.472931 1555.02661 -266.767273 0.40476197 0.721774697 0 
-277.644806 1555.02661 -267.837891 0.412698478 0.721774697 0 
-278.81665 1555.02661 -268.908508 0.420634955 0.721774697 0 
-279.988525 1555.02661 -269.979156 0.428571463 0.721774697 0 
-281.160431 1555.02661 -271.049805 0.43650797 0.721774697 0 
-282.332275 1555.02661 -272.120422 0.444444478 0.721774697 0 
-283.50415 1555.02661 -273.19104 0.452380955 0.721774697 0 
-284.676025 1555.02661 -274.261688 0.460317492 0.721774697 0 
-285.8479 1555.02661 -275.332306 0.468254 0.722237766 0 
-287.019775 1555.02661 -276.402924 0.476190478 0.722237766 0 
-288.19162 1555.02661 -277.473541 0.484126985 0.722237766 0 
-289.363495 1555.02661 -278.544189 0.492063493 0.722237766 0 
-290.53537 1555.02661 -279.614838 0.5 0.722237766 0 
-291.707245 1555.02661 -280.685455 0.5 0.722237766 0 
-237.362518 1574.34387 -197.298126 0.00793650746 0.730573118 0 
-238.613983 1574.34387 -198.274536 0.0158730149 0.730573118 0 
-239.865433 1574.34387 -199.250946 0.0238095224 0.730573118 0 
-241.116882 1574.34387 -200.227386 0.0317460001 0.730573118 0 
-242.368347 1574.34387 -201.203796 0.0396825075 0.730573118 0 
-243.619797 1574.34387 -202.180237 0.0476190448 0.730573118 0 
-244.871246 1574.34387 -203.156647 0.0555555522 0.730573118 0 
-246.122696 1574.34387 -204.133057 0.0634920597 0.730573118 0 
-247.374146 1574.34387 -205.109467 0.0714285672 0.730573118 0 
-248.62561 1574.34387 -206.085907 0.0793650746 0.730573118 0 
-249.87706 1574.34387 -207.062317 0.0873015523 0.730573118 0 
-251.12851 1574.34387 -208.038727 0.0952380598 0.730573118 0 
-252.379959 1574.34387 -209.015167 0.103174567 0.730573118 0 
-253.631409 1574.34387 -209.991577 0.111111075 0.731036186 0 
-254.882874 1574.34387 -210.967987 0.119047612 0.731036186 0 
-256.134308 1574.34387 -211.944397 0.126984119 0.731036186 0 
-257.385773 1574.34387 -212.920837 0.134920627 0.731036186 0 
-258.637207 1574.34387 -213.897247 0.142857134 0.731036186 0 
-259.888672 1574.34387 -214.873657 0.150793642 0.731036186 0 
-261.140106 1574.34387 -215.850067 0.158730149 0.731036186 0 
-262.391571 1574.34387 -216.826508 0.166666657 0.731036186 0 
-263.643005 1574.34387 -217.802917 0.174603164 0.731036186 0 
-264.89447 1574.34387 -218.779327 0.182539701 0.731036186 0 
-266.145935 1574.34387 -219.755737 0.190476209 0.731036186 0 
-267.397369 1574.34387 -220.732178 0.198412716 0.731036186 0 
-268.648834 1574.34387 -221.708588 0.206349224 0.731036186 0 
-269.900269 1574.34387 -222.684998 0.214285731 0.731036186 0 
-271.151733 1574.34387 -223.661438 0.222222239 0.731036186 0 
-272.403198 1574.34387 -224.637848 0.230158746 0.731036186 0 
-273.654633 1574.34387 -225.614273 0.238095284 0.731036186 0 
-274.906097 1574.34387 -226.590683 0.246031791 0.731036186 0 
-276.157532 1574.34387 -227.567123 0.253968298 0.731036186 0 
-277.408997 1574.34387 -228.543533 0.261904806 0.731036186 0 
-278.660461 1574.34387 -229.519943 0.269841313 0.731036186 0 
-279.911896 1574.34387 -230.496353 0.277777851 0.731499255 0 
-281.163361 1574.34387 -231.472794 0.285714328 0.731499255 0 
-282.414795 1574.34387 -232.449203 0.293650866 0.731499255 0 
-283.66626 1574.34387 -233.425613 0.301587343 0.731499255 0 
-284.917694 1574.34387 -234.402023 0.30952388 0.731499255 0 
-286.169159 1574.34387 -235.378464 0.317460388 0.731499255 0 
-287.420624 1574.34387 -236.354904 0.325396895 0.731499255 0 
-288.672058 1574.34387 -237.331284 0.333333403 0.731499255 0 
-289.923523 1574.34387 -238.307724 0.34126991 0.731499255 0 
-291.174988 1574.34387 -239.284134 0.349206448 0.731499255 0 
-292.426422 1574.34387 -240.26059 0.357142925 0.731499255 0 
-293.677856 1574.34387 -241.236969 0.365079433 0.731499255 0 
-294.929321 1574.34387 -242.213409 0.37301594 0.731499255 0 
-296.180786 1574.34387 -243.189819 0.380952448 0.731499255 0 
-297.43222 1574.34387 -244.16626 0.388888955 0.731499255 0 
-298.683685 1574.34387 -245.142639 0.396825463 0.731499255 0 
-299.93512 1574.34387 -246.11908 0.40476197 0.731499255 0 
-301.186584 1574.34387 -247.09549 0.412698478 0.731499255 0 
-302.438049 1574.34387 -248.07193 0.420634955 0.731499255 0 
-303.689484 1574.34387 -249.048309 0.428571463 0.731499255 0 
-304.940948 1574.34387 -250.02475 0.43650797 0.731499255 0 
-306.192383 1574.34387 -251.00119 0.444444478 0.731499255 0 
-307.443848 1574.34387 -251.9776 0.452380955 0.731499255 0 
-308.695282 1574.34387 -252.953979 0.460317492 0.731499255 0 
-309.946747 1574.34387 -253.93042 0.468254 0.731499255 0 
-311.198212 1574.34387 -254.90686 0.476190478 0.731499255 0 
-312.449646 1574.34387 -255.88327 0.484126985 0.731962383 0 
-313.701111 1574.34387 -256.85968 0.492063493 0.731962383 0 
-314.952545 1574.34387 -257.83609 0.5 0.731962383 0 
-316.20401 1574.34387 -258.812531 0.5 0.731962383 0 
-257.099731 1593.66125 -181.521667 0.0158730149 0.740297973 0 
-258.422729 1593.66125 -182.398773 0.0238095224 0.740297973 0 
-259.745667 1593.66125 -183.275848 0.0317460001 0.740297973 0 
-261.068634 1593.66125 -184.152939 0.0396825075 0.740297973 0 
-262.391602 1593.66125 -185.030045 0.0476190448 0.740297973 0 
-263.714569 1593.66125 -185.90712 0.0555555522 0.740297973 0 
-265.037537 1593.66125 -186.78421 0.0634920597 0.740297973 0 
-266.360504 1593.66125 -187.661316 0.0714285672 0.740297973 0 
-267.683472 1593.66125 -188.538406 0.0793650746 0.740297973 0 
-269.006439 1593.66125 -189.415466 0.0873015523 0.740297973 0 
-270.329407 1593.66125 -190.292587 0.0952380598 0.740297973 0 
-271.652374 1593.66125 -191.169647 0.103174567 0.740297973 0 
-272.975342 1593.66125 -192.046783 0.111111075 0.740297973 0 
-274.298309 1593.66125 -192.923843 0.119047612 0.740297973 0 
-275.621277 1593.66125 -193.800934 0.126984119 0.740297973 0 
-276.944244 1593.66125 -194.678024 0.134920627 0.740297973 0 
-278.267212 1593.66125 -195.555084 0.142857134 0.740297973 0 
-279.590179 1593.66125 -196.43222 0.150793642 0.740761042 0 
-280.913116 1593.66125 -197.30928 0.158730149 0.740761042 0 
-282.236115 1593.66125 -198.186371 0.166666657 0.740761042 0 
-283.559082 1593.66125 -199.063461 0.174603164 0.740761042 0 
-284.882019 1593.66125 -199.940552 0.182539701 0.740761042 0 
-286.205017 1593.66125 -200.817657 0.190476209 0.740761042 0 
-287.527954 1593.66125 -201.694748 0.198412716 0.740761042 0 
-288.850952 1593.66125 -202.571838 0.206349224 0.740761042 0 
-290.173889 1593.66125 -203.448898 0.214285731 0.740761042 0 
-291.496887 1593.66125 -204.325989 0.222222239 0.740761042 0 
-292.819824 1593.66125 -205.203094 0.230158746 0.740761042 0 
-294.142792 1593.66125 -206.080185 0.238095284 0.740761042 0 
-295.465759 1593.66125 -206.957275 0.246031791 0.740761042 0 
-296.788757 1593.66125 -207.834366 0.253968298 0.740761042 0 
-298.111694 1593.66125 -208.711426 0.261904806 0.740761042 0 
-299.434692 1593.66125 -209.588562 0.269841313 0.740761042 0 
-300.757629 1593.66125 -210.465622 0.277777851 0.740761042 0 
-302.080597 1593.66125 -211.342743 0.285714328 0.740761042 0 
-303.403564 1593.66125 -212.219803 0.293650866 0.740761042 0 
-304.726532 1593.66125 -213.096893 0.301587343 0.740761042 0 
-306.0495 1593.66125 -213.973999 0.30952388 0.740761042 0 
-307.372467 1593.66125 -214.851089 0.317460388 0.740761042 0 
-308.695435 1593.66125 -215.72818 0.325396895 0.740761042 0 
-310.018402 1593.66125 -216.60524 0.333333403 0.74122417 0 
-311.34137 1593.66125 -217.482361 0.34126991 0.74122417 0 
-312.664307 1593.66125 -218.359436 0.349206448 0.74122417 0 
-313.987305 1593.66125 -219.236526 0.357142925 0.74122417 0 
-315.310242 1593.66125 -220.113617 0.365079433 0.74122417 0 
-316.63324 1593.66125 -220.990707 0.365079433 0.74122417 0 
-317.956177 1593.66125 -221.867798 0.37301594 0.74122417 0 
-319.279175 1593.66125 -222.744904 0.380952448 0.74122417 0 
-320.602112 1593.66125 -223.621964 0.388888955 0.74122417 0 
-321.92511 1593.66125 -224.499084 0.396825463 0.74122417 0 
-323.248047 1593.66125 -225.376144 0.40476197 0.74122417 0 
-324.571014 1593.66125 -226.253235 0.412698478 0.74122417 0 
-325.893982 1593.66125 -227.130341 0.420634955 0.74122417 0 
-327.216949 1593.66125 -228.007431 0.428571463 0.74122417 0 
-328.539917 1593.66125 -228.884521 0.43650797 0.74122417 0 
-329.862915 1593.66125 -229.761581 0.444444478 0.74122417 0 
-331.185852 1593.66125 -230.638702 0.452380955 0.74122417 0 
-332.50882 1593.66125 -231.515778 0.460317492 0.74122417 0 
-333.831787 1593.66125 -232.392868 0.468254 0.74122417 0 
-335.154755 1593.66125 -233.269958 0.476190478 0.74122417 0 
-336.477722 1593.66125 -234.147049 0.484126985 0.74122417 0 
-337.80069 1593.66125 -235.024139 0.492063493 0.74122417 0 
-339.123657 1593.66125 -235.901215 0.5 0.741687238 0 
-340.446625 1593.66125 -236.778336 0.5 0.741687238 0 
-277.10437 1612.97852 -165.87439 0.0238095224 0.749560058 0 
-278.490356 1612.97852 -166.648041 0.0317460001 0.749560058 0 
-279.876343 1612.97852 -167.421707 0.0396825075 0.749560058 0 
-281.262329 1612.97852 -168.195343 0.0476190448 0.749560058 0 
-282.648315 1612.97852 -168.969025 0.0476190448 0.750023186 0 
-284.034302 1612.97852 -169.742661 0.0555555522 0.750023186 0 
-285.420319 1612.97852 -170.516357 0.0634920597 0.750023186 0 
-286.806274 1612.97852 -171.289978 0.0714285672 0.750023186 0 
-288.192322 1612.97852 -172.063675 0.0793650746 0.750023186 0 
-289.578247 1612.97852 -172.837311 0.0873015523 0.750023186 0 
-290.964294 1612.97852 -173.610992 0.0952380598 0.750023186 0 
-292.35025 1612.97852 -174.384644 0.103174567 0.750023186 0 
-293.736267 1612.97852 -175.158325 0.111111075 0.750023186 0 
-295.122253 1612.97852 -175.931946 0.119047612 0.750023186 0 
-296.50824 1612.97852 -176.705658 0.126984119 0.750023186 0 
-297.894226 1612.97852 -177.479309 0.134920627 0.750023186 0 
-299.280212 1612.97852 -178.25296 0.142857134 0.750023186 0 
-300.666199 1612.97852 -179.026611 0.150793642 0.750023186 0 
-302.052216 1612.97852 -179.800293 0.158730149 0.750023186 0 
-303.438171 1612.97852 -180.573914 0.166666657 0.750023186 0 
-304.824188 1612.97852 -181.347595 0.174603164 0.750486255 0 
-306.210205 1612.97852 -182.121277 0.182539701 0.750486255 0 
-307.596191 1612.97852 -182.894928 0.190476209 0.750486255 0 
-308.982178 1612.97852 -183.668549 0.198412716 0.750486255 0 
-310.368164 1612.97852 -184.442276 0.206349224 0.750486255 0 
-311.75415 1612.97852 -185.215897 0.214285731 0.750486255 0 
-313.140137 1612.97852 -185.989578 0.222222239 0.750486255 0 
-314.526123 1612.97852 -186.763229 0.230158746 0.750486255 0 
-315.91214 1612.97852 -187.536911 0.238095284 0.750486255 0 
-317.298126 1612.97852 -188.310577 0.246031791 0.750486255 0 
-318.684113 1612.97852 -189.084229 0.253968298 0.750486255 0 
-320.070099 1612.97852 -189.85788 0.261904806 0.750486255 0 
-321.456116 1612.97852 -190.631561 0.269841313 0.750486255 0 
-322.842102 1612.97852 -191.405182 0.277777851 0.750486255 0 
-324.228088 1612.97852 -192.178864 0.285714328 0.750486255 0 
-325.614075 1612.97852 -192.952515 0.293650866 0.750486255 0 
-327.000061 1612.97852 -193.726196 0.301587343 0.750486255 0 
-328.386047 1612.97852 -194.499817 0.30952388 0.750486255 0 
-329.772064 1612.97852 -195.273529 0.317460388 0.750486255 0 
-331.15802 1612.97852 -196.04715 0.325396895 0.750486255 0 
-332.544037 1612.97852 -196.820831 0.333333403 0.750486255 0 
-333.930023 1612.97852 -197.594482 0.34126991 0.750486255 0 
-335.31601 1612.97852 -198.368134 0.349206448 0.750486255 0 
-336.702026 1612.97852 -199.141815 0.357142925 0.750949383 0 
-338.088013 1612.97852 -199.915466 0.365079433 0.750949383 0 
-339.473999 1612.97852 -200.689133 0.37301594 0.750949383 0 
-340.859985 1612.97852 -201.462814 0.380952448 0.750949383 0 
-342.245972 1612.97852 -202.236435 0.388888955 0.750949383 0 
-343.631958 1612.97852 -203.010117 0.396825463 0.750949383 0 
-345.017944 1612.97852 -203.783768 0.40476197 0.750949383 0 
-346.403992 1612.97852 -204.557449 0.412698478 0.750949383 0 
-347.789917 1612.97852 -205.331116 0.420634955 0.750949383 0 
-349.175964 1612.97852 -206.104797 0.428571463 0.750949383 0 
-350.56192 1612.97852 -206.878418 0.43650797 0.750949383 0 
-351.947937 1612.97852 -207.6521 0.444444478 0.750949383 0 
-353.333923 1612.97852 -208.425751 0.452380955 0.750949383 0 
-354.71991 1612.97852 -209.199432 0.460317492 0.750949383 0 
-356.105896 1612.97852 -209.973053 0.468254 0.750949383 0 
-357.491882 1612.97852 -210.746735 0.476190478 0.750949383 0 
-358.877869 1612.97852 -211.520386 0.484126985 0.750949383 0 
-360.263885 1612.97852 -212.294067 0.492063493 0.750949383 0 
-361.649872 1612.97852 -213.067688 0.5 0.750949383 0 
-363.035858 1612.97852 -213.84137 0.5 0.750949383 0 
-364.421844 1612.97852 -214.615021 0.5 0.751412511 0 
-280.566345 1633.89551 -140.529434 0 0.760023415 0 
-282.0047 1633.87219 -141.200256 0 0.760023415 0 
-283.443085 1633.84888 -141.871124 0 0.759553313 0 
-284.88147 1633.82556 -142.541977 0.00793650746 0.760023415 0 
-286.319824 1633.80225 -143.212799 0.0158730149 0.760023415 0 
-287.75824 1633.77893 -143.883667 0.0238095224 0.760023415 0 
-289.196625 1633.75562 -144.554504 0.0317460001 0.760023415 0 
-290.63501 1633.7323 -145.225372 0.0396825075 0.760023415 0 
-292.073395 1633.70898 -145.896225 0.0476190448 0.760023415 0 
-293.51178 1633.68567 -146.567047 0.0555555522 0.760023415 0 
-294.950134 1633.66235 -147.2379 0.0634920597 0.760023415 0 
-296.38855 1633.63904 -147.908768 0.0714285672 0.760023415 0 
-297.826904 1633.61572 -148.57962 0.0793650746 0.760023415 0 
-299.265289 1633.59253 -149.250458 0.0873015523 0.760023415 0 
-300.703674 1633.56921 -149.921295 0.0952380598 0.760023415 0 
-302.142059 1633.5459 -150.592163 0.103174567 0.760023415 0 
-303.580444 1633.52258 -151.263 0.111111075 0.760023415 0 
-305.01886 1633.49927 -151.933868 0.119047612 0.760023415 0 
-306.457214 1633.47595 -152.604691 0.126984119 0.760023415 0 
-307.895599 1633.45264 -153.275558 0.134920627 0.760023415 0 
-309.333984 1633.42932 -153.946411 0.142857134 0.760023415 0 
-310.772369 1633.40601 -154.617249 0.150793642 0.760023415 0 
-312.210754 1633.38269 -155.288086 0.158730149 0.760023415 0 
-313.649109 1633.35938 -155.958954 0.166666657 0.760493577 0 
-315.087524 1633.33606 -156.629791 0.174603164 0.760493577 0 
-316.525879 1633.31274 -157.300659 0.182539701 0.760493577 0 
-317.964264 1633.28943 -157.971497 0.190476209 0.760493577 0 
-319.402649 1633.26611 -158.642349 0.198412716 0.760493577 0 
-320.841034 1633.24292 -159.313202 0.206349224 0.760493577 0 
-322.279419 1633.2196 -159.984055 0.214285731 0.760493577 0 
-323.717804 1633.19629 -160.654877 0.222222239 0.760493577 0 
-325.156189 1633.17297 -161.325714 0.230158746 0.760493577 0 
-326.594574 1633.14966 -161.996613 0.238095284 0.760493577 0 
-328.032959 1633.12634 -162.66745 0.246031791 0.760493577 0 
-329.471313 1633.10303 -163.338272 0.253968298 0.760493577 0 
-330.909729 1633.07971 -164.009125 0.261904806 0.760493577 0 
-332.348083 1633.0564 -164.679977 0.269841313 0.760493577 0 
-333.786499 1633.03308 -165.35083 0.277777851 0.760493577 0 
-335.224854 1633.00977 -166.021667 0.285714328 0.760493577 0 
-336.663239 1632.98645 -166.692535 0.293650866 0.760493577 0 
-338.101624 1632.96313 -167.363373 0.301587343 0.760493577 0 
-339.540009 1632.93982 -168.034241 0.30952388 0.760493577 0 
-340.978394 1632.9165 -168.705048 0.317460388 0.760493577 0 
-342.416779 1632.89331 -169.375931 0.325396895 0.760493577 0 
-343.855164 1632.86987 -170.046783 0.333333403 0.760493577 0 
-345.293549 1632.84668 -170.717636 0.34126991 0.760493577 0 
-346.731903 1632.82336 -171.388458 0.349206448 0.760963738 0 
-348.170288 1632.80005 -172.059296 0.357142925 0.760963738 0 
-349.608704 1632.77673 -172.730164 0.365079433 0.760963738 0 
-351.047058 1632.75342 -173.401031 0.37301594 0.760963738 0 
-352.485474 1632.7301 -174.071899 0.380952448 0.760963738 0 
-353.923828 1632.70679 -174.742706 0.388888955 0.760963738 0 
-355.362244 1632.68347 -175.413559 0.396825463 0.760963738 0 
-356.800598 1632.66016 -176.084412 0.40476197 0.760963738 0 
-358.238983 1632.63684 -176.755264 0.412698478 0.760963738 0 
-359.677368 1632.61353 -177.426117 0.420634955 0.760963738 0 
-361.115753 1632.59021 -178.096954 0.428571463 0.760963738 0 
-362.554138 1632.56689 -178.767822 0.43650797 0.760963738 0 
-363.992523 1632.5437 -179.43866 0.444444478 0.760963738 0 
-365.430908 1632.52026 -180.109512 0.452380955 0.760963738 0 
-366.869263 1632.49707 -180.780365 0.460317492 0.760963738 0 
-368.307678 1632.47375 -181.451218 0.468254 0.760963738 0 
-369.746033 1632.45044 -182.12207 0.476190478 0.760963738 0 
-371.184418 1632.42712 -182.792892 0.484126985 0.760963738 0 
-284.243347 1654.61646 -115.37587 0 0.769895792 0 
-285.727295 1654.57605 -115.93782 0 0.769895792 0 
-287.211243 1654.53564 -116.499802 0.00793650746 0.769895792 0 
-288.69519 1654.49524 -117.061752 0.0158730149 0.769895792 0 
-290.179138 1654.45483 -117.623695 0.0238095224 0.769895792 0 
-291.663086 1654.41443 -118.185677 0.0317460001 0.769895792 0 
-293.147034 1654.37402 -118.74762 0.0396825075 0.769895792 0 
-294.630981 1654.33374 -119.309586 0.0476190448 0.769895792 0 
-296.114929 1654.29333 -119.871552 0.0555555522 0.769895792 0 
-297.598846 1654.25293 -120.433502 0.0634920597 0.769895792 0 
-299.082794 1654.21252 -120.995461 0.0714285672 0.769895792 0 
-300.566742 1654.17212 -121.557411 0.0793650746 0.769895792 0 
-302.05072 1654.13171 -122.119385 0.0873015523 0.769895792 0 
-303.534637 1654.09131 -122.681335 0.0952380598 0.769895792 0 
-305.018585 1654.0509 -123.243286 0.103174567 0.769895792 0 
-306.502533 1654.0105 -123.805283 0.111111075 0.769895792 0 
-307.986511 1653.97009 -124.367226 0.119047612 0.769895792 0 
-309.470428 1653.92969 -124.929176 0.126984119 0.770365894 0 
-310.954376 1653.88928 -125.491135 0.134920627 0.770365894 0 
-312.438324 1653.84888 -126.053085 0.142857134 0.770365894 0 
-313.922272 1653.80859 -126.615067 0.150793642 0.770365894 0 
-315.406189 1653.76819 -127.177017 0.158730149 0.770365894 0 
-316.890167 1653.72778 -127.738976 0.166666657 0.770365894 0 
-318.374084 1653.68738 -128.300934 0.174603164 0.770365894 0 
-319.858032 1653.64697 -128.862885 0.182539701 0.770365894 0 
-321.34201 1653.60657 -129.424866 0.190476209 0.770365894 0 
-322.825928 1653.56616 -129.986816 0.198412716 0.770365894 0 
-324.309875 1653.52576 -130.548767 0.206349224 0.770365894 0 
-325.793823 1653.48535 -131.110718 0.214285731 0.770365894 0 
-327.277771 1653.44495 -131.672668 0.222222239 0.770365894 0 
-328.761719 1653.40454 -132.23465 0.230158746 0.770365894 0 
-330.245667 1653.36414 -132.796616 0.238095284 0.770365894 0 
-331.729614 1653.32373 -133.358566 0.246031791 0.770365894 0 
-333.213562 1653.28345 -133.920517 0.253968298 0.770365894 0 
-334.69751 1653.24292 -134.482483 0.261904806 0.770365894 0 
-336.181458 1653.20264 -135.044464 0.269841313 0.770365894 0 
-337.665405 1653.16223 -135.6064 0.277777851 0.770365894 0 
-339.149353 1653.12183 -136.16835 0.285714328 0.770365894 0 
-340.633301 1653.08142 -136.730316 0.293650866 0.770365894 0 
-342.117249 1653.04102 -137.292297 0.301587343 0.770835936 0 
-343.601196 1653.00061 -137.854248 0.30952388 0.770835936 0 
-345.085144 1652.96021 -138.416199 0.317460388 0.770835936 0 
-346.569092 1652.9198 -138.978149 0.325396895 0.770835936 0 
-348.05304 1652.87939 -139.5401 0.333333403 0.770835936 0 
-349.536987 1652.83899 -140.102081 0.34126991 0.770835936 0 
-351.020935 1652.79858 -140.664032 0.349206448 0.770835936 0 
-352.504883 1652.7583 -141.226013 0.357142925 0.770835936 0 
-353.988831 1652.71777 -141.787964 0.365079433 0.770835936 0 
-355.472778 1652.67749 -142.349899 0.37301594 0.770835936 0 
-356.956726 1652.63708 -142.91188 0.380952448 0.770835936 0 
-358.440674 1652.59668 -143.473831 0.388888955 0.770835936 0 
-359.924591 1652.55627 -144.035782 0.396825463 0.770835936 0 
-361.408539 1652.51587 -144.597748 0.40476197 0.770835936 0 
-362.892517 1652.47546 -145.159729 0.412698478 0.770835936 0 
-364.376465 1652.43506 -145.72168 0.420634955 0.770835936 0 
-365.860382 1652.39465 -146.28363 0.428571463 0.770835936 0 
-367.34433 1652.35425 -146.845581 0.43650797 0.770835936 0 
-368.828247 1652.31384 -147.407532 0.444444478 0.770835936 0 
-370.312195 1652.27344 -147.969513 0.452380955 0.770835936 0 
-371.796173 1652.23303 -148.531494 0.460317492 0.770835936 0 
-373.280121 1652.19263 -149.09343 0.468254 0.770835936 0 
-374.764038 1652.15234 -149.65538 0.476190478 0.770835936 0 
-376.247986 1652.11194 -150.217331 0.484126985 0.770835936 0 
-377.731934 1652.07153 -150.779312 0.492063493 0.770835936 0 
-288.161682 1675.12793 -90.3744965 0 0.779766977 0 
-289.683533 1675.07703 -90.8227234 0 0.779766977 0 
-291.205383 1675.02612 -91.2709656 0.00793650746 0.779766977 0 
-292.727234 1674.97534 -91.7192154 0.0158730149 0.779766977 0 
-294.249084 1674.92456 -92.1674423 0.0238095224 0.779766977 0 
-295.770935 1674.87378 -92.6156998 0.0317460001 0.779766977 0 
-297.292786 1674.82288 -93.0639267 0.0396825075 0.779766977 0 
-298.814636 1674.77197 -93.5121689 0.0476190448 0.779766977 0 
-300.336487 1674.72119 -93.9604111 0.0555555522 0.779766977 0 
-301.858337 1674.67041 -94.408638 0.0634920597 0.779766977 0 
-303.380188 1674.61951 -94.8568802 0.0714285672 0.779766977 0 
-304.902008 1674.56873 -95.30513 0.0793650746 0.779766977 0 
-306.423859 1674.51782 -95.7533722 0.0873015523 0.779766977 0 
-307.945709 1674.46704 -96.2016144 0.0952380598 0.779766977 0 
-309.46756 1674.41626 -96.6498413 0.103174567 0.779766977 0 
-310.98941 1674.36536 -97.0980835 0.111111075 0.779766977 0 
-312.511292 1674.31458 -97.5463409 0.119047612 0.780236959 0 
-314.033142 1674.26367 -97.9945679 0.126984119 0.780236959 0 
-315.554993 1674.21289 -98.4428101 0.134920627 0.780236959 0 
-317.076813 1674.16211 -98.8910446 0.142857134 0.780236959 0 
-318.598663 1674.11121 -99.3392868 0.150793642 0.780236959 0 
-320.120514 1674.06042 -99.787529 0.158730149 0.780236959 0 
-321.642334 1674.00952 -100.235756 0.166666657 0.780236959 0 
-323.164215 1673.95874 -100.684013 0.174603164 0.780236959 0 
-324.686066 1673.90796 -101.132256 0.182539701 0.780236959 0 
-326.207916 1673.85706 -101.580482 0.190476209 0.780236959 0 
-327.729767 1673.80627 -102.028725 0.198412716 0.780236959 0 
-329.251617 1673.75537 -102.476952 0.206349224 0.780236959 0 
-330.773438 1673.70459 -102.925201 0.214285731 0.780236959 0 
-332.295288 1673.65381 -103.373459 0.222222239 0.780236959 0 
-333.817139 1673.60291 -103.821686 0.230158746 0.780236959 0 
-335.338989 1673.55212 -104.269928 0.238095284 0.780236959 0 
-336.86084 1673.50122 -104.71817 0.246031791 0.780236959 0 
-338.38269 1673.45044 -105.166397 0.253968298 0.780236959 0 
-339.904541 1673.39966 -105.614639 0.261904806 0.780236959 0 
-341.426392 1673.34875 -106.062866 0.269841313 0.780236959 0 
-342.948242 1673.29797 -106.511116 0.277777851 0.780236959 0 
-344.470093 1673.24707 -106.959358 0.285714328 0.780707002 0 
-345.991943 1673.19629 -107.407616 0.293650866 0.780707002 0 
-347.513794 1673.14551 -107.855858 0.301587343 0.780707002 0 
-349.035645 1673.0946 -108.304085 0.30952388 0.780707002 0 
-350.557495 1673.0437 -108.752327 0.317460388 0.780707002 0 
-352.079346 1672.99292 -109.200569 0.325396895 0.780707002 0 
-353.601196 1672.94214 -109.648796 0.333333403 0.780707002 0 
-355.123047 1672.89124 -110.097038 0.34126991 0.780707002 0 
-356.644867 1672.84045 -110.545288 0.349206448 0.780707002 0 
-358.166718 1672.78955 -110.993515 0.357142925 0.780707002 0 
-359.688568 1672.73877 -111.441757 0.365079433 0.780707002 0 
-361.210419 1672.68799 -111.889984 0.37301594 0.780707002 0 
