ply
format ascii 1.0
comment created by gply, a Houdini tool.
comment converted from .[b]geo
comment for more information about Houdini, try:
comment www.sidefx.com
element vertex 783
property float x
property float y
property float z
property float uv1
property float uv2
property float uv3
element face 0
property list uchar int vertex_indices
end_header
129.072952 994.296326 376.551819 0.492063493 0.461472392 0 
129.56192 994.241943 378.060974 0.5 0.461472392 0 
122.112534 1018.29932 273.796631 0 0.471340537 0 
122.714966 1018.24841 275.264282 0.00793650746 0.471340537 0 
123.317398 1018.19763 276.731934 0.0158730149 0.471340537 0 
123.919815 1018.14679 278.199585 0.0238095224 0.471340537 0 
124.522247 1018.09595 279.667267 0.0317460001 0.471340537 0 
125.12468 1018.0451 281.134949 0.0396825075 0.471340537 0 
125.727097 1017.99426 282.6026 0.0476190448 0.471340537 0 
126.329514 1017.94348 284.070251 0.0555555522 0.471340537 0 
126.931946 1017.89264 285.537903 0.0634920597 0.471340537 0 
127.534378 1017.8418 287.005554 0.0714285672 0.471340537 0 
128.136795 1017.79095 288.473236 0.0793650746 0.471340537 0 
128.739227 1017.74011 289.940857 0.0873015523 0.471340537 0 
129.341675 1017.68933 291.408539 0.0952380598 0.471340537 0 
129.944092 1017.63843 292.876221 0.103174567 0.471340537 0 
130.546539 1017.58765 294.343872 0.111111075 0.471340537 0 
131.148926 1017.5368 295.811523 0.119047612 0.471340537 0 
131.751373 1017.48596 297.279175 0.126984119 0.471340537 0 
132.35379 1017.43518 298.746826 0.134920627 0.471340537 0 
132.956238 1017.38428 300.214508 0.142857134 0.471340537 0 
133.55867 1017.3335 301.682159 0.150793642 0.471340537 0 
134.161072 1017.28265 303.149811 0.158730149 0.471340537 0 
134.763504 1017.23181 304.617493 0.166666657 0.471340537 0 
135.365936 1017.18103 306.085144 0.174603164 0.471340537 0 
135.968384 1017.13013 307.552795 0.182539701 0.471340537 0 
136.570786 1017.07935 309.020447 0.190476209 0.471340537 0 
137.173218 1017.0285 310.488098 0.198412716 0.471340537 0 
137.77565 1016.97766 311.95578 0.206349224 0.471340537 0 
138.378082 1016.92682 313.423462 0.214285731 0.471340537 0 
138.980484 1016.87598 314.891083 0.222222239 0.471340537 0 
139.582916 1016.8252 316.358765 0.230158746 0.471340537 0 
140.185364 1016.77429 317.826416 0.238095284 0.471340537 0 
140.787781 1016.72351 319.294067 0.246031791 0.471340537 0 
141.390228 1016.67267 320.761719 0.253968298 0.471340537 0 
141.992645 1016.62183 322.22937 0.261904806 0.471340537 0 
142.595062 1016.57104 323.697052 0.269841313 0.471340537 0 
143.19751 1016.52014 325.164703 0.277777851 0.471340537 0 
143.799927 1016.46936 326.632385 0.285714328 0.471340537 0 
144.402344 1016.41852 328.100037 0.293650866 0.471340537 0 
145.004761 1016.36768 329.567688 0.301587343 0.471340537 0 
145.607208 1016.31689 331.035339 0.30952388 0.471340537 0 
146.209641 1016.26599 332.502991 0.317460388 0.471340537 0 
146.812042 1016.21521 333.970642 0.325396895 0.471340537 0 
147.414474 1016.16437 335.438324 0.333333403 0.471340537 0 
148.016907 1016.11353 336.905975 0.34126991 0.471340537 0 
148.619339 1016.06268 338.373657 0.349206448 0.471340537 0 
149.221771 1016.01184 339.841309 0.357142925 0.471340537 0 
149.824173 1015.96106 341.30896 0.365079433 0.471340537 0 
150.426605 1015.91016 342.776611 0.37301594 0.471340537 0 
151.029037 1015.85938 344.244293 0.380952448 0.471340537 0 
151.63147 1015.80853 345.711945 0.388888955 0.471340537 0 
152.233917 1015.75769 347.179565 0.396825463 0.471340537 0 
152.836334 1015.70691 348.647247 0.40476197 0.471340537 0 
153.438782 1015.65601 350.114929 0.412698478 0.471340537 0 
154.041199 1015.60522 351.582581 0.420634955 0.471340537 0 
154.643646 1015.55438 353.050232 0.428571463 0.471340537 0 
155.246033 1015.50354 354.517883 0.43650797 0.471340537 0 
155.84848 1015.45276 355.985535 0.444444478 0.471340537 0 
156.450912 1015.40186 357.453186 0.452380955 0.471340537 0 
157.053314 1015.35107 358.920837 0.460317492 0.471340537 0 
157.655746 1015.30023 360.388519 0.468254 0.471340537 0 
158.258179 1015.24939 361.856201 0.476190478 0.471340537 0 
158.860611 1015.19855 363.323853 0.484126985 0.471340537 0 
159.463043 1015.14771 364.791504 0.492063493 0.471340537 0 
160.065445 1015.09692 366.259155 0.5 0.471340537 0 
145.527756 1038.70032 264.90097 0 0.481207788 0 
146.23941 1038.65991 266.319244 0.00793650746 0.481207788 0 
146.95105 1038.61951 267.737488 0.0158730149 0.481207788 0 
147.662689 1038.5791 269.155762 0.0238095224 0.481207788 0 
148.374329 1038.5387 270.574005 0.0317460001 0.481207788 0 
149.085999 1038.49829 271.992279 0.0396825075 0.481207788 0 
149.797623 1038.45789 273.410522 0.0476190448 0.481207788 0 
150.509277 1038.41748 274.828796 0.0555555522 0.481207788 0 
151.220917 1038.37708 276.24707 0.0634920597 0.481207788 0 
151.932571 1038.33667 277.665314 0.0714285672 0.481207788 0 
152.644196 1038.29639 279.083557 0.0793650746 0.481207788 0 
153.35585 1038.25586 280.501831 0.0873015523 0.481207788 0 
154.06749 1038.21558 281.920105 0.0952380598 0.481207788 0 
154.779114 1038.17517 283.338318 0.103174567 0.481207788 0 
155.490768 1038.13477 284.756592 0.111111075 0.481207788 0 
156.202423 1038.09436 286.174866 0.119047612 0.481207788 0 
156.914062 1038.05396 287.59314 0.126984119 0.481207788 0 
157.625702 1038.01355 289.011353 0.134920627 0.481207788 0 
158.337341 1037.97314 290.429626 0.142857134 0.481207788 0 
159.049011 1037.93274 291.8479 0.150793642 0.481207788 0 
159.760651 1037.89233 293.266174 0.158730149 0.481207788 0 
160.47229 1037.85193 294.684387 0.166666657 0.481207788 0 
161.183929 1037.81152 296.102661 0.174603164 0.481207788 0 
161.895584 1037.77124 297.520935 0.182539701 0.481207788 0 
162.607208 1037.73071 298.939178 0.190476209 0.481207788 0 
163.318863 1037.69043 300.357422 0.198412716 0.481207788 0 
164.030502 1037.65002 301.775696 0.206349224 0.481207788 0 
164.742157 1037.60962 303.19397 0.214285731 0.481207788 0 
165.453796 1037.56921 304.612183 0.222222239 0.481207788 0 
166.165436 1037.52881 306.030457 0.230158746 0.481207788 0 
166.877075 1037.4884 307.44873 0.238095284 0.481207788 0 
167.58873 1037.448 308.867004 0.246031791 0.481207788 0 
168.300369 1037.40759 310.285248 0.253968298 0.481207788 0 
169.012024 1037.36719 311.703491 0.261904806 0.481207788 0 
169.723663 1037.32678 313.121765 0.269841313 0.481207788 0 
170.435303 1037.28638 314.540039 0.277777851 0.481207788 0 
171.146942 1037.24609 315.958282 0.285714328 0.481207788 0 
171.858597 1037.20557 317.376526 0.293650866 0.481207788 0 
172.570251 1037.16528 318.7948 0.301587343 0.481207788 0 
173.281891 1037.12488 320.213074 0.30952388 0.481207788 0 
173.99353 1037.08447 321.631317 0.317460388 0.481207788 0 
174.70517 1037.04407 323.049561 0.325396895 0.481207788 0 
175.416824 1037.00366 324.467834 0.333333403 0.481207788 0 
176.128464 1036.96326 325.886108 0.34126991 0.481207788 0 
176.840118 1036.92285 327.304352 0.349206448 0.481207788 0 
177.551758 1036.88245 328.722595 0.357142925 0.481207788 0 
178.263367 1036.84204 330.140869 0.365079433 0.481207788 0 
178.975037 1036.80164 331.559143 0.37301594 0.481207788 0 
179.686691 1036.76123 332.977386 0.380952448 0.481207788 0 
180.398346 1036.72095 334.39563 0.388888955 0.481207788 0 
181.109955 1036.68042 335.813904 0.396825463 0.481207788 0 
181.821625 1036.64014 337.232147 0.40476197 0.481207788 0 
182.533264 1036.59973 338.650391 0.412698478 0.481207788 0 
183.244904 1036.55933 340.068665 0.420634955 0.481207788 0 
183.956528 1036.51892 341.486938 0.428571463 0.481207788 0 
184.668213 1036.47852 342.905182 0.43650797 0.481207788 0 
185.379852 1036.43811 344.323425 0.444444478 0.481207788 0 
186.091492 1036.39771 345.741699 0.452380955 0.481207788 0 
186.803101 1036.3573 347.159973 0.460317492 0.481207788 0 
187.514786 1036.31689 348.578217 0.468254 0.481207788 0 
188.226425 1036.27649 349.99649 0.476190478 0.481207788 0 
188.938049 1036.23608 351.414734 0.484126985 0.481207788 0 
189.649689 1036.1958 352.833008 0.492063493 0.481207788 0 
190.361328 1036.15527 354.251282 0.5 0.481207788 0 
169.052704 1058.87024 256.280121 0 0.491074264 0 
169.867996 1058.84692 257.641846 0.00793650746 0.491074264 0 
170.683258 1058.82361 259.003601 0.0158730149 0.491074264 0 
171.49852 1058.80029 260.365326 0.0238095224 0.491074264 0 
172.313812 1058.7771 261.727051 0.0317460001 0.491074264 0 
173.129059 1058.75366 263.088806 0.0396825075 0.491074264 0 
173.944336 1058.73047 264.450531 0.0476190448 0.491074264 0 
174.759598 1058.70715 265.812256 0.0555555522 0.491074264 0 
175.574875 1058.68384 267.174011 0.0634920597 0.491074264 0 
176.390137 1058.66052 268.535736 0.0714285672 0.491074264 0 
177.205414 1058.63721 269.897461 0.0793650746 0.491074264 0 
178.020691 1058.61389 271.259216 0.0873015523 0.491074264 0 
178.835938 1058.59058 272.620941 0.0952380598 0.491074264 0 
179.651215 1058.56726 273.982666 0.103174567 0.491074264 0 
180.466461 1058.54395 275.344421 0.111111075 0.491074264 0 
181.281754 1058.52063 276.706177 0.119047612 0.491074264 0 
182.097015 1058.49731 278.067871 0.126984119 0.491074264 0 
182.912292 1058.474 279.429626 0.134920627 0.491074264 0 
183.72757 1058.45068 280.791351 0.142857134 0.491074264 0 
184.542816 1058.42749 282.153076 0.150793642 0.491074264 0 
185.358093 1058.40405 283.514832 0.158730149 0.491074264 0 
186.17334 1058.38086 284.876556 0.166666657 0.491074264 0 
186.988617 1058.35742 286.238281 0.174603164 0.491074264 0 
187.803894 1058.33423 287.600037 0.182539701 0.491074264 0 
188.619156 1058.31091 288.961731 0.190476209 0.491074264 0 
189.434464 1058.2876 290.323486 0.198412716 0.491074264 0 
190.24971 1058.26428 291.685242 0.206349224 0.491074264 0 
191.064972 1058.24097 293.046936 0.214285731 0.491074264 0 
191.880249 1058.21765 294.408691 0.222222239 0.491074264 0 
192.695526 1058.19434 295.770447 0.230158746 0.491074264 0 
193.510773 1058.17102 297.132141 0.238095284 0.491074264 0 
194.32605 1058.14771 298.493896 0.246031791 0.491074264 0 
195.141327 1058.12439 299.855652 0.253968298 0.491074264 0 
195.956573 1058.10107 301.217346 0.261904806 0.491074264 0 
196.771851 1058.07788 302.579102 0.269841313 0.491074264 0 
197.587112 1058.05444 303.940796 0.277777851 0.491074264 0 
198.40239 1058.03125 305.302551 0.285714328 0.491074264 0 
199.217667 1058.00781 306.664307 0.293650866 0.491074264 0 
200.032928 1057.98462 308.026001 0.301587343 0.491074264 0 
200.848206 1057.9613 309.387756 0.30952388 0.491074264 0 
201.663483 1057.93799 310.749512 0.317460388 0.491074264 0 
202.478729 1057.91467 312.111206 0.325396895 0.491074264 0 
203.294006 1057.89136 313.472961 0.333333403 0.491074264 0 
204.109283 1057.86804 314.834717 0.34126991 0.491074264 0 
204.92453 1057.84473 316.196442 0.349206448 0.491074264 0 
205.739807 1057.82141 317.558167 0.357142925 0.491074264 0 
206.555084 1057.7981 318.919922 0.365079433 0.491074264 0 
207.370346 1057.77478 320.281647 0.37301594 0.491074264 0 
208.185623 1057.75146 321.643372 0.380952448 0.491074264 0 
209.00087 1057.72815 323.005127 0.388888955 0.491074264 0 
209.816162 1057.70483 324.366852 0.396825463 0.491074264 0 
210.631439 1057.68164 325.728577 0.40476197 0.491074264 0 
211.446686 1057.6582 327.090332 0.412698478 0.491074264 0 
212.261932 1057.63501 328.452026 0.420634955 0.491074264 0 
213.07724 1057.61169 329.813782 0.428571463 0.491074264 0 
213.892487 1057.58838 331.175537 0.43650797 0.491074264 0 
214.707764 1057.56506 332.537231 0.444444478 0.491074264 0 
215.52301 1057.54175 333.898987 0.452380955 0.491074264 0 
216.338303 1057.51843 335.260712 0.460317492 0.491074264 0 
217.15358 1057.49512 336.622437 0.468254 0.491074264 0 
217.968826 1057.4718 337.984192 0.476190478 0.491074264 0 
218.784119 1057.44849 339.345917 0.484126985 0.491074264 0 
219.599396 1057.42517 340.707642 0.492063493 0.491074264 0 
220.414642 1057.40186 342.069397 0.5 0.491074264 0 
192.732544 1078.81677 247.90918 0 0.500000656 0 
193.644684 1078.81677 249.208221 0.00793650746 0.500000656 0 
194.556824 1078.81677 250.507248 0.0158730149 0.500000656 0 
195.468994 1078.81677 251.806305 0.0238095224 0.500000656 0 
196.381119 1078.81677 253.105347 0.0317460001 0.500000656 0 
197.293274 1078.81677 254.404388 0.0396825075 0.500000656 0 
198.205414 1078.81677 255.70343 0.0476190448 0.500000656 0 
199.117554 1078.81677 257.002472 0.0555555522 0.500000656 0 
200.029724 1078.81677 258.301544 0.0634920597 0.500000656 0 
200.941849 1078.81677 259.600586 0.0714285672 0.500000656 0 
201.854004 1078.81677 260.899597 0.0793650746 0.500000656 0 
202.766144 1078.81677 262.198639 0.0873015523 0.500000656 0 
203.678284 1078.81677 263.497711 0.0952380598 0.500000656 0 
204.590439 1078.81677 264.796753 0.103174567 0.500000656 0 
205.502579 1078.81677 266.095795 0.111111075 0.500000656 0 
206.414734 1078.81677 267.394836 0.119047612 0.500000656 0 
207.326874 1078.81677 268.693878 0.126984119 0.500000656 0 
208.239014 1078.81677 269.99292 0.134920627 0.500000656 0 
209.151169 1078.81677 271.291962 0.142857134 0.500000656 0 
210.063309 1078.81677 272.591003 0.150793642 0.500000656 0 
210.975464 1078.81677 273.890076 0.158730149 0.500000656 0 
211.887604 1078.81677 275.189087 0.166666657 0.500000656 0 
212.799744 1078.81677 276.488159 0.174603164 0.500000656 0 
213.711899 1078.81677 277.787201 0.182539701 0.500000656 0 
214.624039 1078.81677 279.086243 0.190476209 0.500000656 0 
215.536194 1078.81677 280.385284 0.198412716 0.500000656 0 
216.448334 1078.81677 281.684326 0.206349224 0.500000656 0 
217.360474 1078.81677 282.983368 0.214285731 0.500000656 0 
218.272629 1078.81677 284.28241 0.222222239 0.500000656 0 
219.184784 1078.81677 285.581451 0.230158746 0.500000656 0 
220.096924 1078.81677 286.880493 0.238095284 0.500000656 0 
221.009033 1078.81677 288.179565 0.246031791 0.500000656 0 
221.921204 1078.81677 289.478607 0.253968298 0.500000656 0 
222.833359 1078.81677 290.777649 0.261904806 0.500000656 0 
223.745483 1078.81677 292.07666 0.269841313 0.500000656 0 
224.657654 1078.81677 293.375732 0.277777851 0.500000656 0 
225.569794 1078.81677 294.674774 0.285714328 0.500000656 0 
226.481903 1078.81677 295.973816 0.293650866 0.500000656 0 
227.394089 1078.81677 297.272858 0.301587343 0.500000656 0 
228.306244 1078.81677 298.571899 0.30952388 0.500000656 0 
229.218353 1078.81677 299.870941 0.317460388 0.500000656 0 
230.130524 1078.81677 301.170013 0.325396895 0.500000656 0 
231.042633 1078.81677 302.469055 0.333333403 0.500000656 0 
231.954788 1078.81677 303.768066 0.34126991 0.500000656 0 
232.866974 1078.81677 305.067139 0.349206448 0.500000656 0 
233.779083 1078.81677 306.36615 0.357142925 0.500000656 0 
234.691223 1078.81677 307.665222 0.365079433 0.500000656 0 
235.603394 1078.81677 308.964264 0.37301594 0.500000656 0 
236.515518 1078.81677 310.263306 0.380952448 0.500000656 0 
237.427704 1078.81677 311.562378 0.388888955 0.500000656 0 
238.339844 1078.81677 312.861389 0.396825463 0.500000656 0 
239.251953 1078.81677 314.160431 0.40476197 0.500000656 0 
240.164139 1078.81677 315.459473 0.412698478 0.500000656 0 
241.076248 1078.81677 316.758545 0.420634955 0.500000656 0 
241.988403 1078.81677 318.057556 0.428571463 0.500000656 0 
242.900574 1078.81677 319.356628 0.43650797 0.500000656 0 
243.812683 1078.81677 320.65564 0.444444478 0.500000656 0 
244.724838 1078.81677 321.954712 0.452380955 0.500000656 0 
245.636978 1078.81677 323.253754 0.460317492 0.500000656 0 
246.549133 1078.81677 324.552795 0.468254 0.500000656 0 
247.461273 1078.81677 325.851837 0.476190478 0.500000656 0 
248.373444 1078.81677 327.150879 0.484126985 0.500000656 0 
249.285568 1078.81677 328.449921 0.492063493 0.500000656 0 
250.197723 1078.81677 329.748962 0.5 0.500000656 0 
325.742432 1089.12244 56.0314636 0 0.500001013 0 
327.309845 1089.12244 56.2821198 0.00793650746 0.500001013 0 
328.877228 1089.12244 56.5327759 0.0158730149 0.500001013 0 
330.444611 1089.12244 56.783432 0.0238095224 0.500001013 0 
332.011993 1089.12244 57.0340881 0.0317460001 0.500001013 0 
333.579376 1089.12244 57.2847481 0.0396825075 0.500001013 0 
335.146759 1089.12244 57.5354042 0.0476190448 0.500001013 0 
336.714142 1089.12244 57.7860641 0.0555555522 0.500001013 0 
338.281525 1089.12244 58.0367203 0.0634920597 0.500001013 0 
339.848907 1089.12244 58.2873764 0.0714285672 0.500001013 0 
341.41629 1089.12244 58.5380325 0.0793650746 0.500001013 0 
342.983673 1089.12244 58.7886887 0.0873015523 0.500001013 0 
344.551086 1089.12244 59.0393448 0.0952380598 0.500001013 0 
346.118469 1089.12244 59.2900047 0.103174567 0.500001013 0 
347.685852 1089.12244 59.5406609 0.111111075 0.500001013 0 
349.253235 1089.12244 59.7913208 0.119047612 0.500001013 0 
350.820618 1089.12244 60.0419769 0.126984119 0.500001013 0 
352.388 1089.12244 60.2926331 0.134920627 0.500001013 0 
353.955383 1089.12244 60.5432892 0.142857134 0.500001013 0 
355.522766 1089.12244 60.7939453 0.150793642 0.500001013 0 
357.090149 1089.12244 61.0446014 0.158730149 0.500001013 0 
358.657532 1089.12244 61.2952614 0.166666657 0.500001013 0 
360.224915 1089.12244 61.5459175 0.174603164 0.500001013 0 
361.792297 1089.12244 61.7965775 0.182539701 0.500001013 0 
363.359711 1089.12244 62.0472336 0.190476209 0.500001013 0 
364.927094 1089.12244 62.2978897 0.198412716 0.500001013 0 
366.494476 1089.12244 62.5485458 0.206349224 0.500001013 0 
368.061859 1089.12244 62.799202 0.214285731 0.500001013 0 
369.629242 1089.12244 63.0498619 0.222222239 0.500001013 0 
371.196625 1089.12244 63.300518 0.230158746 0.500001013 0 
372.764008 1089.12244 63.5511742 0.238095284 0.500001013 0 
374.33139 1089.12244 63.8018341 0.246031791 0.500001013 0 
375.898773 1089.12244 64.0524902 0.253968298 0.500001013 0 
377.466156 1089.12244 64.3031464 0.261904806 0.500001013 0 
379.033539 1089.12244 64.5538025 0.269841313 0.500001013 0 
380.600952 1089.12244 64.8044586 0.277777851 0.500001013 0 
382.168335 1089.12244 65.0551147 0.285714328 0.500001013 0 
383.735718 1089.12244 65.3057709 0.293650866 0.500001013 0 
385.303101 1089.12244 65.556427 0.301587343 0.500001013 0 
386.870483 1089.12244 65.8070908 0.30952388 0.500001013 0 
388.437866 1089.12244 66.0577469 0.317460388 0.500001013 0 
390.005249 1089.12244 66.308403 0.325396895 0.500001013 0 
391.572632 1089.12244 66.5590591 0.333333403 0.500001013 0 
393.140015 1089.12244 66.8097153 0.34126991 0.500001013 0 
394.707397 1089.12244 67.0603714 0.349206448 0.500001013 0 
396.27478 1089.12244 67.3110275 0.357142925 0.500001013 0 
397.842163 1089.12244 67.5616913 0.365079433 0.500001013 0 
399.409576 1089.12244 67.8123474 0.37301594 0.500001013 0 
400.976959 1089.12244 68.0630035 0.380952448 0.500001013 0 
402.544342 1089.12244 68.3136597 0.388888955 0.500001013 0 
404.111725 1089.12244 68.5643158 0.396825463 0.500001013 0 
405.679108 1089.12244 68.8149719 0.40476197 0.500001013 0 
407.24649 1089.12244 69.0656281 0.412698478 0.500001013 0 
408.813873 1089.12244 69.3162842 0.420634955 0.500001013 0 
410.381256 1089.12244 69.5669479 0.428571463 0.500001013 0 
411.948639 1089.12244 69.8176041 0.43650797 0.500001013 0 
413.516022 1089.12244 70.0682602 0.444444478 0.500001013 0 
415.083405 1089.12244 70.3189163 0.452380955 0.500001013 0 
416.650818 1089.12244 70.5695724 0.460317492 0.500001013 0 
418.218201 1089.12244 70.8202286 0.468254 0.500001013 0 
419.785583 1089.12244 71.0708847 0.476190478 0.500001013 0 
421.352966 1089.12244 71.3215408 0.484126985 0.500001013 0 
422.920349 1089.12244 71.5722046 0.492063493 0.500001013 0 
424.487732 1089.12244 71.8228607 0.5 0.500001013 0 
319.149109 1108.43982 31.230917 0 0.508800149 0 
320.731049 1108.43982 31.3613338 0 0.508800149 0 
322.312988 1108.43982 31.4917488 0.00793650746 0.508800149 0 
323.894928 1108.43982 31.6221657 0.0158730149 0.508800149 0 
325.476868 1108.43982 31.7525806 0.0238095224 0.508800149 0 
327.058777 1108.43982 31.8829956 0.0317460001 0.508800149 0 
328.640747 1108.43982 32.0134125 0.0396825075 0.508800149 0 
330.222656 1108.43982 32.1438293 0.0476190448 0.508800149 0 
331.804596 1108.43982 32.2742462 0.0634920597 0.509263217 0 
333.386536 1108.43982 32.4046593 0.0714285672 0.509263217 0 
334.968475 1108.43982 32.5350761 0.0793650746 0.509263217 0 
336.550385 1108.43982 32.6654892 0.0873015523 0.509263217 0 
338.132324 1108.43982 32.7959061 0.0952380598 0.509263217 0 
339.714264 1108.43982 32.9263229 0.103174567 0.509263217 0 
341.296204 1108.43982 33.0567398 0.111111075 0.509263217 0 
342.878143 1108.43982 33.1871567 0.119047612 0.509263217 0 
344.460083 1108.43982 33.3175697 0.126984119 0.509263217 0 
346.042023 1108.43982 33.4479866 0.134920627 0.509263217 0 
347.623932 1108.43982 33.5784035 0.142857134 0.509263217 0 
349.205872 1108.43982 33.7088165 0.150793642 0.509263217 0 
350.787811 1108.43982 33.8392334 0.158730149 0.509263217 0 
352.369751 1108.43982 33.9696503 0.166666657 0.509263217 0 
353.951691 1108.43982 34.1000671 0.174603164 0.509263217 0 
355.53363 1108.43982 34.2304802 0.182539701 0.509263217 0 
357.11554 1108.43982 34.3608971 0.190476209 0.509263217 0 
358.697479 1108.43982 34.4913139 0.198412716 0.509263217 0 
360.279419 1108.43982 34.621727 0.206349224 0.509263217 0 
361.861359 1108.43982 34.7521439 0.214285731 0.509263217 0 
363.443298 1108.43982 34.8825607 0.222222239 0.509263217 0 
365.025238 1108.43982 35.0129776 0.230158746 0.509263217 0 
366.607178 1108.43982 35.1433945 0.238095284 0.509263217 0 
368.189087 1108.43982 35.2738075 0.246031791 0.509263217 0 
369.771027 1108.43982 35.4042244 0.253968298 0.509263217 0 
371.352966 1108.43982 35.5346375 0.261904806 0.509263217 0 
372.934906 1108.43982 35.6650543 0.269841313 0.509263217 0 
374.516846 1108.43982 35.7954712 0.277777851 0.509263217 0 
376.098785 1108.43982 35.9258881 0.285714328 0.509263217 0 
377.680695 1108.43982 36.0563049 0.293650866 0.509263217 0 
379.262634 1108.43982 36.186718 0.301587343 0.509263217 0 
380.844574 1108.43982 36.3171349 0.30952388 0.509263217 0 
382.426514 1108.43982 36.4475517 0.317460388 0.509263217 0 
384.008453 1108.43982 36.5779648 0.325396895 0.509263217 0 
385.590393 1108.43982 36.7083817 0.333333403 0.509263217 0 
387.172333 1108.43982 36.8387985 0.34126991 0.509263217 0 
388.754242 1108.43982 36.9692154 0.349206448 0.509726346 0 
390.336182 1108.43982 37.0996284 0.357142925 0.509726346 0 
391.918121 1108.43982 37.2300453 0.365079433 0.509726346 0 
393.500061 1108.43982 37.3604622 0.37301594 0.509726346 0 
395.082001 1108.43982 37.4908752 0.380952448 0.509726346 0 
396.66394 1108.43982 37.6212921 0.388888955 0.509726346 0 
398.24585 1108.43982 37.751709 0.396825463 0.509726346 0 
399.827789 1108.43982 37.8821259 0.40476197 0.509726346 0 
401.409729 1108.43982 38.0125427 0.412698478 0.509726346 0 
402.991669 1108.43982 38.1429558 0.420634955 0.509726346 0 
404.573608 1108.43982 38.2733727 0.428571463 0.509726346 0 
406.155548 1108.43982 38.4037857 0.43650797 0.509726346 0 
407.737488 1108.43982 38.5342026 0.444444478 0.509726346 0 
409.319397 1108.43982 38.6646194 0.452380955 0.509726346 0 
410.901337 1108.43982 38.7950363 0.460317492 0.509726346 0 
412.483276 1108.43982 38.9254532 0.468254 0.509726346 0 
414.065216 1108.43982 39.0558662 0.476190478 0.509726346 0 
415.647156 1108.43982 39.1862831 0.484126985 0.509726346 0 
417.229065 1108.43982 39.3167 0.492063493 0.509726346 0 
418.811005 1108.43982 39.447113 0.5 0.509726346 0 
312.832825 1127.7572 6.55253696 0 0.518525124 0 
314.420105 1127.7572 6.56067371 0.00793650746 0.518525124 0 
316.007385 1127.7572 6.56881142 0.0158730149 0.518525124 0 
317.594666 1127.7572 6.57694817 0.0238095224 0.518525124 0 
319.181946 1127.7572 6.58508587 0.0317460001 0.518988192 0 
320.769226 1127.7572 6.59322262 0.0396825075 0.518988192 0 
322.356506 1127.7572 6.60136032 0.0476190448 0.518988192 0 
323.943787 1127.7572 6.60949707 0.0555555522 0.518988192 0 
325.531067 1127.7572 6.61763477 0.0634920597 0.518988192 0 
327.118347 1127.7572 6.62577152 0.0714285672 0.518988192 0 
328.705627 1127.7572 6.63390923 0.0793650746 0.518988192 0 
330.292908 1127.7572 6.64204597 0.0873015523 0.518988192 0 
331.880188 1127.7572 6.65018368 0.0952380598 0.518988192 0 
333.467468 1127.7572 6.65832043 0.103174567 0.518988192 0 
335.054749 1127.7572 6.66645813 0.111111075 0.518988192 0 
336.642059 1127.7572 6.67459488 0.119047612 0.518988192 0 
338.22934 1127.7572 6.68273258 0.126984119 0.518988192 0 
339.81662 1127.7572 6.69086933 0.134920627 0.518988192 0 
341.4039 1127.7572 6.69900703 0.142857134 0.518988192 0 
342.99118 1127.7572 6.70714378 0.150793642 0.518988192 0 
344.578461 1127.7572 6.71528053 0.158730149 0.518988192 0 
346.165741 1127.7572 6.72341824 0.166666657 0.518988192 0 
347.753021 1127.7572 6.73155499 0.174603164 0.518988192 0 
349.340302 1127.7572 6.73969269 0.182539701 0.518988192 0 
350.927582 1127.7572 6.74782944 0.190476209 0.518988192 0 
352.514862 1127.7572 6.75596714 0.198412716 0.518988192 0 
354.102142 1127.7572 6.76410389 0.206349224 0.518988192 0 
355.689423 1127.7572 6.77224159 0.214285731 0.518988192 0 
357.276703 1127.7572 6.78037834 0.222222239 0.518988192 0 
358.863983 1127.7572 6.78851604 0.230158746 0.518988192 0 
360.451263 1127.7572 6.79665279 0.238095284 0.518988192 0 
362.038544 1127.7572 6.8047905 0.246031791 0.518988192 0 
363.625824 1127.7572 6.81292725 0.253968298 0.518988192 0 
365.213104 1127.7572 6.82106495 0.261904806 0.518988192 0 
366.800385 1127.7572 6.8292017 0.269841313 0.518988192 0 
368.387665 1127.7572 6.8373394 0.277777851 0.518988192 0 
369.974945 1127.7572 6.84547615 0.285714328 0.518988192 0 
371.562225 1127.7572 6.85361385 0.293650866 0.518988192 0 
373.149506 1127.7572 6.8617506 0.301587343 0.518988192 0 
374.736786 1127.7572 6.86988831 0.30952388 0.518988192 0 
376.324066 1127.7572 6.87802505 0.317460388 0.519451261 0 
377.911346 1127.7572 6.88616276 0.325396895 0.519451261 0 
379.498627 1127.7572 6.89429951 0.333333403 0.519451261 0 
381.085907 1127.7572 6.90243721 0.34126991 0.519451261 0 
382.673187 1127.7572 6.91057396 0.349206448 0.519451261 0 
384.260468 1127.7572 6.91871071 0.357142925 0.519451261 0 
385.847748 1127.7572 6.92684841 0.365079433 0.519451261 0 
387.435028 1127.7572 6.93498516 0.37301594 0.519451261 0 
389.022308 1127.7572 6.94312286 0.380952448 0.519451261 0 
390.609589 1127.7572 6.95125961 0.388888955 0.519451261 0 
392.196869 1127.7572 6.95939732 0.396825463 0.519451261 0 
393.784149 1127.7572 6.96753407 0.40476197 0.519451261 0 
395.371429 1127.7572 6.97567177 0.412698478 0.519451261 0 
396.95871 1127.7572 6.98380852 0.420634955 0.519451261 0 
398.54599 1127.7572 6.99194622 0.428571463 0.519451261 0 
400.13327 1127.7572 7.00008297 0.43650797 0.519451261 0 
401.720551 1127.7572 7.00822067 0.444444478 0.519451261 0 
403.307831 1127.7572 7.01635742 0.452380955 0.519451261 0 
404.895111 1127.7572 7.02449512 0.460317492 0.519451261 0 
406.482391 1127.7572 7.03263187 0.468254 0.519451261 0 
408.069672 1127.7572 7.04076958 0.476190478 0.519451261 0 
409.656952 1127.7572 7.04890633 0.484126985 0.519451261 0 
411.244232 1127.7572 7.05704403 0.492063493 0.519451261 0 
412.831512 1127.7572 7.06518078 0.5 0.519451261 0 
306.809845 1147.07446 -18.0352364 0 0.5282498 0 
308.392975 1147.07446 -18.1503525 0.00793650746 0.5282498 0 
309.976074 1147.07446 -18.2654705 0.0158730149 0.5282498 0 
311.559204 1147.07446 -18.3805885 0.0238095224 0.528712869 0 
313.142334 1147.07446 -18.4957047 0.0317460001 0.528712869 0 
314.725464 1147.07446 -18.6108208 0.0396825075 0.528712869 0 
316.308563 1147.07446 -18.7259369 0.0476190448 0.528712869 0 
317.891693 1147.07446 -18.8410549 0.0555555522 0.528712869 0 
319.474823 1147.07446 -18.9561729 0.0634920597 0.528712869 0 
321.057922 1147.07446 -19.0712891 0.0714285672 0.528712869 0 
322.641052 1147.07446 -19.1864052 0.0793650746 0.528712869 0 
324.224182 1147.07446 -19.3015213 0.0873015523 0.528712869 0 
325.807312 1147.07446 -19.4166393 0.0952380598 0.528712869 0 
327.390411 1147.07446 -19.5317574 0.103174567 0.528712869 0 
328.973541 1147.07446 -19.6468735 0.111111075 0.528712869 0 
330.556671 1147.07446 -19.7619896 0.119047612 0.528712869 0 
332.139801 1147.07446 -19.8771057 0.126984119 0.528712869 0 
333.7229 1147.07446 -19.9922237 0.134920627 0.528712869 0 
335.30603 1147.07446 -20.1073418 0.142857134 0.528712869 0 
336.88916 1147.07446 -20.2224579 0.150793642 0.528712869 0 
338.47229 1147.07446 -20.337574 0.158730149 0.528712869 0 
340.055389 1147.07446 -20.452692 0.166666657 0.528712869 0 
341.638519 1147.07446 -20.5678082 0.174603164 0.528712869 0 
343.221649 1147.07446 -20.6829262 0.182539701 0.528712869 0 
344.804749 1147.07446 -20.7980423 0.190476209 0.528712869 0 
346.387878 1147.07446 -20.9131584 0.198412716 0.528712869 0 
347.971008 1147.07446 -21.0282764 0.206349224 0.528712869 0 
349.554138 1147.07446 -21.1433926 0.214285731 0.528712869 0 
351.137238 1147.07446 -21.2585106 0.222222239 0.528712869 0 
352.720367 1147.07446 -21.3736267 0.230158746 0.528712869 0 
354.303497 1147.07446 -21.4887428 0.238095284 0.528712869 0 
355.886627 1147.07446 -21.6038609 0.246031791 0.528712869 0 
357.469727 1147.07446 -21.718977 0.253968298 0.528712869 0 
359.052856 1147.07446 -21.834095 0.261904806 0.528712869 0 
360.635986 1147.07446 -21.9492111 0.269841313 0.528712869 0 
362.219116 1147.07446 -22.0643272 0.277777851 0.528712869 0 
363.802216 1147.07446 -22.1794453 0.285714328 0.528712869 0 
365.385345 1147.07446 -22.2945614 0.293650866 0.529175937 0 
366.968475 1147.07446 -22.4096794 0.301587343 0.529175937 0 
368.551575 1147.07446 -22.5247955 0.30952388 0.529175937 0 
370.134705 1147.07446 -22.6399117 0.317460388 0.529175937 0 
371.717834 1147.07446 -22.7550297 0.325396895 0.529175937 0 
373.300964 1147.07446 -22.8701458 0.333333403 0.529175937 0 
374.884064 1147.07446 -22.9852638 0.34126991 0.529175937 0 
376.467194 1147.07446 -23.1003799 0.349206448 0.529175937 0 
378.050323 1147.07446 -23.2154961 0.357142925 0.529175937 0 
379.633453 1147.07446 -23.3306141 0.365079433 0.529175937 0 
381.216553 1147.07446 -23.4457321 0.37301594 0.529175937 0 
382.799683 1147.07446 -23.5608482 0.380952448 0.529175937 0 
384.382812 1147.07446 -23.6759644 0.388888955 0.529175937 0 
385.965942 1147.07446 -23.7910805 0.396825463 0.529175937 0 
387.549042 1147.07446 -23.9061985 0.40476197 0.529175937 0 
389.132172 1147.07446 -24.0213165 0.412698478 0.529175937 0 
390.715302 1147.07446 -24.1364326 0.420634955 0.529175937 0 
392.298401 1147.07446 -24.2515488 0.428571463 0.529175937 0 
393.881531 1147.07446 -24.3666649 0.43650797 0.529175937 0 
395.464661 1147.07446 -24.4817829 0.444444478 0.529175937 0 
397.047791 1147.07446 -24.5969009 0.452380955 0.529175937 0 
398.63089 1147.07446 -24.7120171 0.460317492 0.529175937 0 
400.21402 1147.07446 -24.8271332 0.468254 0.529175937 0 
401.79715 1147.07446 -24.9422493 0.476190478 0.529175937 0 
403.38028 1147.07446 -25.0573673 0.484126985 0.529175937 0 
404.963379 1147.07446 -25.1724854 0.492063493 0.529175937 0 
406.546509 1147.07446 -25.2876015 0.5 0.529175937 0 
301.09137 1166.39185 -42.5665817 0 0.537974238 0 
302.660675 1166.39185 -42.8048172 0.00793650746 0.537974238 0 
304.230011 1166.39185 -43.0430527 0.0158730149 0.538437307 0 
305.799316 1166.39185 -43.2812843 0.0238095224 0.538437307 0 
307.368652 1166.39185 -43.5195198 0.0317460001 0.538437307 0 
308.937988 1166.39185 -43.7577553 0.0396825075 0.538437307 0 
310.507294 1166.39185 -43.9959869 0.0476190448 0.538437307 0 
312.07663 1166.39185 -44.2342224 0.0555555522 0.538437307 0 
313.645935 1166.39185 -44.4724579 0.0634920597 0.538437307 0 
315.215271 1166.39185 -44.7106895 0.0714285672 0.538437307 0 
316.784576 1166.39185 -44.948925 0.0793650746 0.538437307 0 
318.353912 1166.39185 -45.1871605 0.0873015523 0.538437307 0 
319.923218 1166.39185 -45.4253922 0.0952380598 0.538437307 0 
321.492554 1166.39185 -45.6636276 0.103174567 0.538437307 0 
323.061859 1166.39185 -45.9018631 0.111111075 0.538437307 0 
324.631195 1166.39185 -46.1400986 0.119047612 0.538437307 0 
326.2005 1166.39185 -46.3783302 0.126984119 0.538437307 0 
327.769836 1166.39185 -46.6165657 0.134920627 0.538437307 0 
329.339172 1166.39185 -46.8547974 0.142857134 0.538437307 0 
330.908478 1166.39185 -47.0930328 0.150793642 0.538437307 0 
332.477814 1166.39185 -47.3312683 0.158730149 0.538437307 0 
334.047119 1166.39185 -47.5695038 0.166666657 0.538437307 0 
335.616455 1166.39185 -47.8077354 0.174603164 0.538437307 0 
337.18576 1166.39185 -48.0459709 0.182539701 0.538437307 0 
338.755096 1166.39185 -48.2842026 0.190476209 0.538437307 0 
340.324402 1166.39185 -48.522438 0.198412716 0.538437307 0 
341.893738 1166.39185 -48.7606735 0.206349224 0.538437307 0 
343.463043 1166.39185 -48.998909 0.214285731 0.538437307 0 
345.032379 1166.39185 -49.2371445 0.222222239 0.538437307 0 
346.601685 1166.39185 -49.4753761 0.230158746 0.538437307 0 
348.171021 1166.39185 -49.7136116 0.238095284 0.538437307 0 
349.740356 1166.39185 -49.9518433 0.246031791 0.538437307 0 
351.309662 1166.39185 -50.1900787 0.253968298 0.538437307 0 
352.878998 1166.39185 -50.4283142 0.261904806 0.538437307 0 
354.448303 1166.39185 -50.6665497 0.269841313 0.538437307 0 
356.017639 1166.39185 -50.9047813 0.277777851 0.538437307 0 
357.586945 1166.39185 -51.1430168 0.285714328 0.538900375 0 
359.156281 1166.39185 -51.3812485 0.293650866 0.538900375 0 
360.725586 1166.39185 -51.6194839 0.301587343 0.538900375 0 
362.294922 1166.39185 -51.8577194 0.30952388 0.538900375 0 
363.864227 1166.39185 -52.0959549 0.317460388 0.538900375 0 
365.433563 1166.39185 -52.3341866 0.325396895 0.538900375 0 
367.002869 1166.39185 -52.572422 0.333333403 0.538900375 0 
368.572205 1166.39185 -52.8106537 0.34126991 0.538900375 0 
370.141541 1166.39185 -53.0488892 0.349206448 0.538900375 0 
371.710846 1166.39185 -53.2871246 0.357142925 0.538900375 0 
373.280182 1166.39185 -53.5253601 0.365079433 0.538900375 0 
374.849487 1166.39185 -53.7635918 0.37301594 0.538900375 0 
376.418823 1166.39185 -54.0018272 0.380952448 0.538900375 0 
377.988129 1166.39185 -54.2400627 0.388888955 0.538900375 0 
379.557465 1166.39185 -54.4782944 0.396825463 0.538900375 0 
381.12677 1166.39185 -54.7165298 0.40476197 0.538900375 0 
382.696106 1166.39185 -54.9547653 0.412698478 0.538900375 0 
384.265411 1166.39185 -55.1930008 0.420634955 0.538900375 0 
385.834747 1166.39185 -55.4312325 0.428571463 0.538900375 0 
387.404053 1166.39185 -55.6694679 0.43650797 0.538900375 0 
388.973389 1166.39185 -55.9076996 0.444444478 0.538900375 0 
390.542694 1166.39185 -56.1459351 0.452380955 0.538900375 0 
392.11203 1166.39185 -56.3841705 0.460317492 0.538900375 0 
393.681335 1166.39185 -56.622406 0.468254 0.538900375 0 
395.250671 1166.39185 -56.8606377 0.476190478 0.538900375 0 
396.820007 1166.39185 -57.0988731 0.484126985 0.538900375 0 
398.389313 1166.39185 -57.3371048 0.492063493 0.538900375 0 
399.958649 1166.39185 -57.5753403 0.5 0.538900375 0 
295.683411 1185.70923 -67.0773392 0 0.547698617 0 
297.229309 1185.70923 -67.4374237 0.00793650746 0.547698617 0 
298.775238 1185.70923 -67.7975082 0.0158730149 0.548161685 0 
300.321167 1185.70923 -68.1575928 0.0238095224 0.548161685 0 
301.867065 1185.70923 -68.5176773 0.0317460001 0.548161685 0 
303.412994 1185.70923 -68.8777618 0.0396825075 0.548161685 0 
304.958923 1185.70923 -69.2378464 0.0476190448 0.548161685 0 
306.504822 1185.70923 -69.5979309 0.0555555522 0.548161685 0 
308.050751 1185.70923 -69.9580154 0.0634920597 0.548161685 0 
309.59668 1185.70923 -70.3181 0.0714285672 0.548161685 0 
311.142578 1185.70923 -70.6781845 0.0793650746 0.548161685 0 
312.688507 1185.70923 -71.038269 0.0873015523 0.548161685 0 
314.234436 1185.70923 -71.3983536 0.0952380598 0.548161685 0 
315.780334 1185.70923 -71.7584381 0.103174567 0.548161685 0 
317.326263 1185.70923 -72.1185226 0.111111075 0.548161685 0 
318.872192 1185.70923 -72.4786072 0.119047612 0.548161685 0 
320.418091 1185.70923 -72.8386917 0.126984119 0.548161685 0 
321.96402 1185.70923 -73.1987762 0.134920627 0.548161685 0 
323.509949 1185.70923 -73.5588608 0.142857134 0.548161685 0 
325.055847 1185.70923 -73.9189453 0.150793642 0.548161685 0 
326.601776 1185.70923 -74.2790298 0.158730149 0.548161685 0 
328.147705 1185.70923 -74.6391144 0.166666657 0.548161685 0 
329.693604 1185.70923 -74.9991989 0.174603164 0.548161685 0 
331.239532 1185.70923 -75.3592834 0.182539701 0.548161685 0 
332.785461 1185.70923 -75.719368 0.190476209 0.548161685 0 
334.33136 1185.70923 -76.0794525 0.198412716 0.548161685 0 
335.877289 1185.70923 -76.439537 0.206349224 0.548161685 0 
337.423218 1185.70923 -76.7996216 0.214285731 0.548161685 0 
338.969116 1185.70923 -77.1597137 0.222222239 0.548161685 0 
340.515045 1185.70923 -77.5197906 0.230158746 0.548161685 0 
342.060974 1185.70923 -77.8798828 0.238095284 0.548161685 0 
343.606873 1185.70923 -78.2399673 0.246031791 0.548161685 0 
345.152802 1185.70923 -78.6000519 0.253968298 0.548161685 0 
346.69873 1185.70923 -78.9601364 0.261904806 0.548161685 0 
348.244629 1185.70923 -79.3202209 0.269841313 0.548161685 0 
349.790558 1185.70923 -79.6803055 0.277777851 0.548161685 0 
351.336487 1185.70923 -80.04039 0.285714328 0.548624754 0 
352.882385 1185.70923 -80.4004745 0.293650866 0.548624754 0 
354.428314 1185.70923 -80.7605591 0.301587343 0.548624754 0 
355.974243 1185.70923 -81.1206436 0.30952388 0.548624754 0 
357.520142 1185.70923 -81.4807281 0.317460388 0.548624754 0 
359.066071 1185.70923 -81.8408127 0.325396895 0.548624754 0 
360.612 1185.70923 -82.2008972 0.333333403 0.548624754 0 
362.157898 1185.70923 -82.5609818 0.34126991 0.548624754 0 
363.703827 1185.70923 -82.9210663 0.349206448 0.548624754 0 
365.249756 1185.70923 -83.2811508 0.357142925 0.548624754 0 
366.795654 1185.70923 -83.6412354 0.365079433 0.548624754 0 
368.341583 1185.70923 -84.0013199 0.37301594 0.548624754 0 
369.887512 1185.70923 -84.3614044 0.380952448 0.548624754 0 
371.433411 1185.70923 -84.721489 0.388888955 0.548624754 0 
372.97934 1185.70923 -85.0815735 0.396825463 0.548624754 0 
374.525269 1185.70923 -85.441658 0.40476197 0.548624754 0 
376.071167 1185.70923 -85.8017426 0.412698478 0.548624754 0 
377.617096 1185.70923 -86.1618271 0.420634955 0.548624754 0 
379.163025 1185.70923 -86.5219116 0.428571463 0.548624754 0 
380.708923 1185.70923 -86.8820038 0.43650797 0.548624754 0 
382.254852 1185.70923 -87.2420807 0.444444478 0.548624754 0 
383.800781 1185.70923 -87.6021729 0.452380955 0.548624754 0 
385.34668 1185.70923 -87.9622498 0.460317492 0.548624754 0 
386.892609 1185.70923 -88.3223419 0.468254 0.548624754 0 
388.438538 1185.70923 -88.6824188 0.476190478 0.548624754 0 
389.984436 1185.70923 -89.042511 0.484126985 0.548624754 0 
391.530365 1185.70923 -89.4025879 0.492063493 0.548624754 0 
393.076294 1185.70923 -89.7626801 0.5 0.548624754 0 
290.586151 1205.02661 -91.6039276 0 0.557423055 0 
292.099274 1205.02661 -92.0834808 0.00793650746 0.557423055 0 
293.612396 1205.02661 -92.5630341 0.0158730149 0.557423055 0 
295.125519 1205.02661 -93.0425873 0.0238095224 0.557886124 0 
296.638641 1205.02661 -93.5221405 0.0317460001 0.557886124 0 
298.151794 1205.02661 -94.0017014 0.0396825075 0.557886124 0 
299.664917 1205.02661 -94.4812546 0.0476190448 0.557886124 0 
301.17804 1205.02661 -94.9608078 0.0555555522 0.557886124 0 
302.691162 1205.02661 -95.440361 0.0634920597 0.557886124 0 
304.204285 1205.02661 -95.9199142 0.0714285672 0.557886124 0 
305.717407 1205.02661 -96.3994751 0.0793650746 0.557886124 0 
307.23053 1205.02661 -96.8790283 0.0873015523 0.557886124 0 
308.743652 1205.02661 -97.3585815 0.0952380598 0.557886124 0 
310.256805 1205.02661 -97.8381348 0.103174567 0.557886124 0 
311.769928 1205.02661 -98.317688 0.111111075 0.557886124 0 
313.283051 1205.02661 -98.7972412 0.119047612 0.557886124 0 
314.796173 1205.02661 -99.2768021 0.126984119 0.557886124 0 
316.309296 1205.02661 -99.7563553 0.134920627 0.557886124 0 
317.822449 1205.02661 -100.235909 0.142857134 0.557886124 0 
319.335571 1205.02661 -100.715462 0.150793642 0.557886124 0 
320.848694 1205.02661 -101.195015 0.158730149 0.557886124 0 
322.361816 1205.02661 -101.674576 0.166666657 0.557886124 0 
323.874939 1205.02661 -102.154129 0.174603164 0.557886124 0 
325.388062 1205.02661 -102.633682 0.182539701 0.557886124 0 
326.901184 1205.02661 -103.113235 0.190476209 0.557886124 0 
328.414337 1205.02661 -103.592789 0.198412716 0.557886124 0 
329.92746 1205.02661 -104.072342 0.206349224 0.557886124 0 
331.440582 1205.02661 -104.551895 0.214285731 0.557886124 0 
332.953705 1205.02661 -105.031456 0.222222239 0.557886124 0 
334.466827 1205.02661 -105.511009 0.230158746 0.557886124 0 
335.97995 1205.02661 -105.990562 0.238095284 0.557886124 0 
337.493073 1205.02661 -106.470116 0.246031791 0.557886124 0 
339.006226 1205.02661 -106.949669 0.253968298 0.557886124 0 
340.519348 1205.02661 -107.42923 0.261904806 0.557886124 0 
342.032471 1205.02661 -107.908783 0.269841313 0.557886124 0 
343.545593 1205.02661 -108.388336 0.277777851 0.557886124 0 
345.058716 1205.02661 -108.867889 0.285714328 0.557886124 0 
346.571838 1205.02661 -109.347443 0.293650866 0.558349192 0 
348.084961 1205.02661 -109.826996 0.301587343 0.558349192 0 
349.598114 1205.02661 -110.306549 0.30952388 0.558349192 0 
351.111237 1205.02661 -110.78611 0.317460388 0.558349192 0 
352.624359 1205.02661 -111.265663 0.325396895 0.558349192 0 
354.137482 1205.02661 -111.745216 0.333333403 0.558349192 0 
355.650604 1205.02661 -112.22477 0.34126991 0.558349192 0 
357.163727 1205.02661 -112.704323 0.349206448 0.558349192 0 
358.67688 1205.02661 -113.183884 0.357142925 0.558349192 0 
360.190002 1205.02661 -113.663437 0.365079433 0.558349192 0 
361.703125 1205.02661 -114.14299 0.37301594 0.558349192 0 
363.216248 1205.02661 -114.622543 0.380952448 0.558349192 0 
364.72937 1205.02661 -115.102097 0.388888955 0.558349192 0 
366.242493 1205.02661 -115.58165 0.396825463 0.558349192 0 
367.755615 1205.02661 -116.061203 0.40476197 0.558349192 0 
369.268768 1205.02661 -116.540764 0.412698478 0.558349192 0 
370.781891 1205.02661 -117.020317 0.420634955 0.558349192 0 
372.295013 1205.02661 -117.49987 0.428571463 0.558349192 0 
373.808136 1205.02661 -117.979424 0.43650797 0.558349192 0 
375.321259 1205.02661 -118.458984 0.444444478 0.558349192 0 
376.834381 1205.02661 -118.938538 0.452380955 0.558349192 0 
378.347534 1205.02661 -119.418091 0.460317492 0.558349192 0 
379.860657 1205.02661 -119.897644 0.468254 0.558349192 0 
381.373779 1205.02661 -120.377197 0.476190478 0.558349192 0 
382.886902 1205.02661 -120.85675 0.484126985 0.558349192 0 
384.400024 1205.02661 -121.336304 0.492063493 0.558349192 0 
385.913147 1205.02661 -121.815857 0.5 0.558349192 0 
285.794312 1224.34387 -116.182297 0 0.567147732 0 
287.265625 1224.34387 -116.777878 0.00793650746 0.567147732 0 
288.736969 1224.34387 -117.373459 0.0158730149 0.567147732 0 
290.208282 1224.34387 -117.96904 0.0238095224 0.567147732 0 
291.679626 1224.34387 -118.564621 0.0317460001 0.567147732 0 
293.15094 1224.34387 -119.160194 0.0396825075 0.5676108 0 
294.622284 1224.34387 -119.755775 0.0476190448 0.5676108 0 
296.093628 1224.34387 -120.351357 0.0555555522 0.5676108 0 
297.564941 1224.34387 -120.946938 0.0634920597 0.5676108 0 
299.036255 1224.34387 -121.542519 0.0714285672 0.5676108 0 
300.507599 1224.34387 -122.138092 0.0793650746 0.5676108 0 
301.978943 1224.34387 -122.733673 0.0873015523 0.5676108 0 
303.450256 1224.34387 -123.329254 0.0952380598 0.5676108 0 
304.9216 1224.34387 -123.924835 0.103174567 0.5676108 0 
306.392914 1224.34387 -124.520416 0.111111075 0.5676108 0 
307.864258 1224.34387 -125.115997 0.119047612 0.5676108 0 
309.335571 1224.34387 -125.711578 0.126984119 0.5676108 0 
310.806915 1224.34387 -126.307152 0.134920627 0.5676108 0 
312.278229 1224.34387 -126.902733 0.142857134 0.5676108 0 
313.749573 1224.34387 -127.498314 0.150793642 0.5676108 0 
315.220886 1224.34387 -128.093887 0.158730149 0.5676108 0 
316.69223 1224.34387 -128.689468 0.166666657 0.5676108 0 
318.163544 1224.34387 -129.285049 0.174603164 0.5676108 0 
319.634888 1224.34387 -129.88063 0.182539701 0.5676108 0 
321.106201 1224.34387 -130.476212 0.190476209 0.5676108 0 
322.577545 1224.34387 -131.071793 0.198412716 0.5676108 0 
324.048889 1224.34387 -131.667374 0.206349224 0.5676108 0 
325.520203 1224.34387 -132.262955 0.214285731 0.5676108 0 
326.991547 1224.34387 -132.858536 0.222222239 0.5676108 0 
328.46286 1224.34387 -133.454117 0.230158746 0.5676108 0 
329.934204 1224.34387 -134.049683 0.238095284 0.5676108 0 
331.405518 1224.34387 -134.645264 0.246031791 0.5676108 0 
332.876862 1224.34387 -135.240845 0.253968298 0.5676108 0 
334.348175 1224.34387 -135.836426 0.261904806 0.5676108 0 
335.819519 1224.34387 -136.432007 0.269841313 0.5676108 0 
337.290833 1224.34387 -137.027588 0.277777851 0.5676108 0 
338.762177 1224.34387 -137.623169 0.285714328 0.5676108 0 
340.23349 1224.34387 -138.21875 0.293650866 0.5676108 0 
341.704834 1224.34387 -138.814331 0.301587343 0.5676108 0 
343.176147 1224.34387 -139.409912 0.30952388 0.5676108 0 
344.647491 1224.34387 -140.005493 0.317460388 0.568073869 0 
346.118835 1224.34387 -140.601074 0.325396895 0.568073869 0 
347.590149 1224.34387 -141.19664 0.333333403 0.568073869 0 
349.061493 1224.34387 -141.792221 0.34126991 0.568073869 0 
350.532806 1224.34387 -142.387802 0.349206448 0.568073869 0 
352.00415 1224.34387 -142.983383 0.357142925 0.568073869 0 
353.475464 1224.34387 -143.578964 0.365079433 0.568073869 0 
354.946808 1224.34387 -144.174545 0.37301594 0.568073869 0 
356.418121 1224.34387 -144.770126 0.380952448 0.568073869 0 
357.889465 1224.34387 -145.365707 0.388888955 0.568073869 0 
359.360779 1224.34387 -145.961288 0.396825463 0.568073869 0 
360.832123 1224.34387 -146.55687 0.40476197 0.568073869 0 
362.303436 1224.34387 -147.152451 0.412698478 0.568073869 0 
363.77478 1224.34387 -147.748016 0.420634955 0.568073869 0 
365.246094 1224.34387 -148.343597 0.428571463 0.568073869 0 
366.717438 1224.34387 -148.939178 0.43650797 0.568073869 0 
368.188782 1224.34387 -149.53476 0.444444478 0.568073869 0 
369.660095 1224.34387 -150.130341 0.452380955 0.568073869 0 
371.131439 1224.34387 -150.725922 0.460317492 0.568073869 0 
372.602753 1224.34387 -151.321503 0.468254 0.568073869 0 
374.074097 1224.34387 -151.917084 0.476190478 0.568073869 0 
375.54541 1224.34387 -152.512665 0.484126985 0.568073869 0 
377.016754 1224.34387 -153.108246 0.492063493 0.568073869 0 
378.488068 1224.34387 -153.703827 0.5 0.568073869 0 
281.297028 1243.66125 -140.846771 0 0.576872647 0 
282.718109 1243.66125 -141.553955 0.00793650746 0.576872647 0 
284.13916 1243.66125 -142.261139 0.0158730149 0.576872647 0 
285.560242 1243.66125 -142.968307 0.0238095224 0.576872647 0 
286.981293 1243.66125 -143.675491 0.0317460001 0.576872647 0 
288.402374 1243.66125 -144.38266 0.0396825075 0.576872647 0 
289.823425 1243.66125 -145.089844 0.0476190448 0.576872647 0 
291.244507 1243.66125 -145.797028 0.0555555522 0.577335775 0 
292.665558 1243.66125 -146.504196 0.0634920597 0.577335775 0 
294.086609 1243.66125 -147.21138 0.0714285672 0.577335775 0 
295.50769 1243.66125 -147.918549 0.0793650746 0.577335775 0 
296.928741 1243.66125 -148.625732 0.0873015523 0.577335775 0 
298.349823 1243.66125 -149.332916 0.0952380598 0.577335775 0 
