ply
format ascii 1.0
comment created by gply, a Houdini tool.
comment converted from .[b]geo
comment for more information about Houdini, try:
comment www.sidefx.com
element vertex 54
property float x
property float y
property float z
property float uv1
property float uv2
property float uv3
element face 0
property list uchar int vertex_indices
end_header
266.882904 361.100006 47.0586548 0.0230280627 -5.96046448e-08 269.601562 
266.882904 709.099976 47.0586548 0.0230280627 0.199999958 269.601562 
266.882904 1057.09998 47.0586548 0.0230280627 0.400000006 269.601562 
266.882904 1405.09998 47.0586548 0.0230280627 0.600000024 269.601562 
266.882904 1753.09998 47.0586548 0.0230280627 0.800000012 269.601562 
266.882904 2101.1001 47.0586548 0.0230280627 1 269.601562 
234.692886 361.100006 -135.5 0.912573099 -5.96046448e-08 275.075287 
234.692886 709.099976 -135.5 0.912573099 0.199999958 275.075287 
234.692886 1057.09998 -135.5 0.912573099 0.400000006 275.075287 
234.692886 1405.09998 -135.5 0.912573099 0.600000024 275.075287 
234.692886 1753.09998 -135.5 0.912573099 0.800000012 275.075287 
234.692886 2101.1001 -135.5 0.912573099 1 275.075287 
92.687439 361.100006 -254.656723 0.803959489 -5.96046448e-08 278.589996 
92.687439 709.099976 -254.656723 0.803959489 0.199999958 278.589996 
92.687439 1057.09998 -254.656723 0.803959489 0.400000006 278.589996 
92.687439 1405.09998 -254.656723 0.803959489 0.600000024 278.589996 
92.687439 1753.09998 -254.656723 0.803959489 0.800000012 278.589996 
92.687439 2101.1001 -254.656723 0.803959489 1 278.589996 
-92.6874771 361.100006 -254.656693 0.696040571 -5.96046448e-08 278.590027 
-92.6874771 709.099976 -254.656693 0.696040571 0.199999958 278.590027 
-92.6874771 1057.09998 -254.656693 0.696040571 0.400000006 278.590027 
-92.6874771 1405.09998 -254.656693 0.696040571 0.600000024 278.590027 
-92.6874771 1753.09998 -254.656693 0.696040571 0.800000012 278.590027 
-92.6874771 2101.1001 -254.656693 0.696040571 1 278.590027 
-234.692902 361.100006 -135.499969 0.587426841 -5.96046448e-08 275.075317 
-234.692902 709.099976 -135.499969 0.587426841 0.199999958 275.075317 
-234.692902 1057.09998 -135.499969 0.587426841 0.400000006 275.075317 
-234.692902 1405.09998 -135.499969 0.587426841 0.600000024 275.075317 
-234.692902 1753.09998 -135.499969 0.587426841 0.800000012 275.075317 
-234.692902 2101.1001 -135.499969 0.587426841 1 275.075317 
-266.882904 361.100006 47.0587273 0.476971865 -5.96046448e-08 269.601593 
-266.882904 709.099976 47.0587273 0.476971865 0.199999958 269.601593 
-266.882904 1057.09998 47.0587273 0.476971865 0.400000006 269.601593 
-266.882904 1405.09998 47.0587273 0.476971865 0.600000024 269.601593 
-266.882904 1753.09998 47.0587273 0.476971865 0.800000012 269.601593 
-266.882904 2101.1001 47.0587273 0.476971865 1 269.601593 
-174.195419 361.100006 207.598053 0.364268392 -5.96046448e-08 264.69455 
-174.195419 709.099976 207.598053 0.364268392 0.199999958 264.69455 
-174.195419 1057.09998 207.598053 0.364268392 0.400000006 264.69455 
-174.195419 1405.09998 207.598053 0.364268392 0.600000024 264.69455 
-174.195419 1753.09998 207.598053 0.364268392 0.800000012 264.69455 
-174.195419 2101.1001 207.598053 0.364268392 1 264.69455 
0.00012588501 361.100006 271 0.25 -5.96046448e-08 262.731354 
0.00012588501 709.099976 271 0.25 0.199999958 262.731354 
0.00012588501 1057.09998 271 0.25 0.400000006 262.731354 
0.00012588501 1405.09998 271 0.25 0.600000024 262.731354 
0.00012588501 1753.09998 271 0.25 0.800000012 262.731354 
0.00012588501 2101.1001 271 0.25 1 262.731354 
174.195496 361.100006 207.597992 0.135731474 -5.96046448e-08 264.694519 
174.195496 709.099976 207.597992 0.135731474 0.199999958 264.694519 
174.195496 1057.09998 207.597992 0.135731474 0.400000006 264.694519 
174.195496 1405.09998 207.597992 0.135731474 0.600000024 264.694519 
174.195496 1753.09998 207.597992 0.135731474 0.800000012 264.694519 
174.195496 2101.1001 207.597992 0.135731474 1 264.694519 
