ply
format ascii 1.0
comment created by gply, a Houdini tool.
comment converted from .[b]geo
comment for more information about Houdini, try:
comment www.sidefx.com
element vertex 54
property float x
property float y
property float z
property float uv1
property float uv2
property float uv3
element face 0
property list uchar int vertex_indices
end_header
332.865021 361.100006 58.6930847 0.0230280645 -5.96046448e-08 336.391876 
332.865021 709.099976 58.6930847 0.0230280645 0.199999958 336.391876 
332.865021 1057.09998 58.6930847 0.0230280645 0.400000006 336.391876 
332.865021 1405.09998 58.6930847 0.0230280645 0.600000024 336.391876 
332.865021 1753.09998 58.6930847 0.0230280645 0.800000012 336.391876 
332.865021 2101.1001 58.6930847 0.0230280645 1 336.391876 
292.716583 361.100006 -169 0.912573099 -5.96046448e-08 343.221619 
292.716583 709.099976 -169 0.912573099 0.199999958 343.221619 
292.716583 1057.09998 -169 0.912573099 0.400000006 343.221619 
292.716583 1405.09998 -169 0.912573099 0.600000024 343.221619 
292.716583 1753.09998 -169 0.912573099 0.800000012 343.221619 
292.716583 2101.1001 -169 0.912573099 1 343.221619 
115.602783 361.100006 -317.616119 0.803959489 -5.96046448e-08 347.607117 
115.602783 709.099976 -317.616119 0.803959489 0.199999958 347.607117 
115.602783 1057.09998 -317.616119 0.803959489 0.400000006 347.607117 
115.602783 1405.09998 -317.616119 0.803959489 0.600000024 347.607117 
115.602783 1753.09998 -317.616119 0.803959489 0.800000012 347.607117 
115.602783 2101.1001 -317.616119 0.803959489 1 347.607117 
-115.602829 361.100006 -317.616119 0.696040571 -5.96046448e-08 347.607086 
-115.602829 709.099976 -317.616119 0.696040571 0.199999958 347.607086 
-115.602829 1057.09998 -317.616119 0.696040571 0.400000006 347.607086 
-115.602829 1405.09998 -317.616119 0.696040571 0.600000024 347.607086 
-115.602829 1753.09998 -317.616119 0.696040571 0.800000012 347.607086 
-115.602829 2101.1001 -317.616119 0.696040571 1 347.607086 
-292.716614 361.100006 -168.999954 0.587426841 -5.96046448e-08 343.22171 
-292.716614 709.099976 -168.999954 0.587426841 0.199999958 343.22171 
-292.716614 1057.09998 -168.999954 0.587426841 0.400000006 343.22171 
-292.716614 1405.09998 -168.999954 0.587426841 0.600000024 343.22171 
-292.716614 1753.09998 -168.999954 0.587426841 0.800000012 343.22171 
-292.716614 2101.1001 -168.999954 0.587426841 1 343.22171 
-332.86499 361.100006 58.6931725 0.476971865 -5.96046448e-08 336.391907 
-332.86499 709.099976 58.6931725 0.476971865 0.199999958 336.391907 
-332.86499 1057.09998 58.6931725 0.476971865 0.400000006 336.391907 
-332.86499 1405.09998 58.6931725 0.476971865 0.600000024 336.391907 
-332.86499 1753.09998 58.6931725 0.476971865 0.800000012 336.391907 
-332.86499 2101.1001 58.6931725 0.476971865 1 336.391907 
-217.262177 361.100006 258.923065 0.364268392 -5.96046448e-08 330.269196 
-217.262177 709.099976 258.923065 0.364268392 0.199999958 330.269196 
-217.262177 1057.09998 258.923065 0.364268392 0.400000006 330.269196 
-217.262177 1405.09998 258.923065 0.364268392 0.600000024 330.269196 
-217.262177 1753.09998 258.923065 0.364268392 0.800000012 330.269196 
-217.262177 2101.1001 258.923065 0.364268392 1 330.269196 
0.000152587891 361.100006 338 0.25 -5.96046448e-08 327.819702 
0.000152587891 709.099976 338 0.25 0.199999958 327.819702 
0.000152587891 1057.09998 338 0.25 0.400000006 327.819702 
0.000152587891 1405.09998 338 0.25 0.600000024 327.819702 
0.000152587891 1753.09998 338 0.25 0.800000012 327.819702 
0.000152587891 2101.1001 338 0.25 1 327.819702 
217.262283 361.100006 258.922974 0.135731488 -5.96046448e-08 330.269196 
217.262283 709.099976 258.922974 0.135731488 0.199999958 330.269196 
217.262283 1057.09998 258.922974 0.135731488 0.400000006 330.269196 
217.262283 1405.09998 258.922974 0.135731488 0.600000024 330.269196 
217.262283 1753.09998 258.922974 0.135731488 0.800000012 330.269196 
217.262283 2101.1001 258.922974 0.135731488 1 330.269196 
